-4508 -4148 -4218 -4036 -3795 -4013 -3738 -3549 -3577 -3329 -2804 -2582 -3272 -3863 -3743 -4178 -3903 -4008 -3561 -4385 -4164 -4791 -4764 -4317 -3607 -2831 -2201 -560 -117 -102 -104 -101 -84 -36 999999 999999 999999 999999 999999 -33 -24 999999 999999 999999 999999 999999 999999 999999 999999 999999 999999 999999 999999 999999 999999 999999 999999 999999 999999 999999 999999 999999 999999 999999 999999 999999 999999 999999 999999 999999 999999 999999 999999 999999 999999 999999 999999 999999 999999 999999 999999 999999 999999 999999 999999 999999 999999 999999 999999 999999 999999 999999 999999 999999 999999 999999 999999 999999 999999 999999 999999 999999 999999 999999 999999 999999 999999 999999 999999 999999 999999 999999 999999 999999 999999 999999 999999 999999 999999 999999 999999 999999 999999 999999 999999 999999 999999 999999 999999 999999 999999 999999 999999 999999 999999 999999 999999 999999 999999 999999 999999 999999 999999 999999 999999 999999 999999 999999 999999 999999 999999 999999 999999 999999 999999 999999 999999 999999 999999 999999 999999 999999 999999 999999 999999 999999 999999 999999 999999 999999 999999 999999 999999 999999 999999 999999 999999 999999 999999 999999 999999 999999 999999 999999 999999 999999 999999 999999 999999 999999 -38 -52 -99 -150 -105 -90 -65 -62 -68 -69 -44 -49 -22 -10 999999 999999 999999 999999 999999 999999 999999 999999 999999 999999 999999 999999 999999 999999 -193 -193 -1520 -3322 -3821 -3533 -3268 -3418 -3234 -140 -158 -312 999999 999999 999999 999999 999999 999999 999999 999999 999999 999999 999999 999999 999999 999999 999999 999999 999999 999999 999999 999999 999999 999999 999999 999999 999999 999999 999999 999999 999999 999999 999999 999999 999999 999999 999999 999999 999999 999999 999999 999999 999999 999999 999999 999999 999999 999999 999999 999999 999999 999999 999999 999999 999999 999999 999999 999999 999999 999999 999999 999999 999999 999999 999999 999999 999999 -116 -132 -97 -196 -153 -152 -193 -98 999999 999999 -226 -34 -164 -337 -342 -713 -1890 -2445 -2814 -3110 -2915 -3856 -4198 -4441 -4226
-4491 -4183 -4146 -4227 -3479 -3987 -4158 -3636 -3546 -3061 -3670 -3429 -3365 -3568 -3906 -3816 -3638 -4063 -3872 -4102 -4729 -4762 -4626 -4120 -1559 -2315 -2119 -187 -111 -98 -100 -99 -83 -50 999999 999999 999999 999999 999999 -16 -34 -20 999999 999999 999999 999999 999999 999999 999999 999999 999999 999999 999999 999999 999999 999999 999999 999999 999999 999999 999999 999999 999999 999999 999999 999999 999999 999999 999999 999999 999999 999999 999999 999999 999999 999999 999999 999999 999999 999999 999999 999999 999999 999999 999999 999999 999999 999999 999999 999999 999999 999999 999999 999999 999999 999999 999999 999999 999999 999999 999999 999999 999999 999999 999999 999999 999999 999999 999999 999999 999999 999999 999999 999999 999999 999999 999999 999999 999999 999999 999999 999999 999999 999999 999999 999999 999999 999999 999999 999999 999999 999999 999999 999999 999999 999999 999999 999999 999999 999999 999999 999999 999999 999999 999999 999999 999999 999999 999999 999999 999999 999999 999999 999999 999999 999999 999999 999999 999999 999999 999999 999999 999999 999999 999999 999999 999999 999999 999999 999999 999999 999999 999999 999999 999999 999999 999999 999999 999999 999999 999999 999999 999999 999999 999999 999999 999999 999999 999999 999999 999999 -19 -82 -103 -112 -79 -96 -63 -49 -45 -40 -34 -22 -10 999999 999999 999999 999999 999999 999999 999999 999999 999999 999999 999999 999999 999999 999999 999999 -123 -76 -121 -786 -1629 -1094 -181 -143 -108 999999 999999 999999 999999 999999 999999 999999 999999 999999 999999 999999 999999 999999 999999 999999 999999 999999 999999 999999 999999 999999 999999 999999 999999 999999 999999 999999 999999 999999 999999 999999 999999 999999 999999 999999 999999 999999 999999 999999 999999 999999 999999 999999 999999 999999 999999 999999 999999 999999 999999 999999 999999 999999 999999 999999 999999 999999 999999 999999 999999 999999 999999 999999 999999 999999 999999 999999 999999 999999 999999 999999 999999 999999 -127 -312 999999 999999 -152 -296 -232 -267 -297 -726 -1873 -2553 -2924 -3398 -3823 -4115 -4251 -4409 -4386
-4310 -4194 -3916 -3734 -4266 -3928 -3788 -3963 -3569 -3027 -3344 -3454 -3799 -3848 -4221 -4122 -3647 -3608 -4354 -3826 -4158 -4622 -4547 -3189 -821 -2001 -1369 -176 -107 -91 -86 -74 -119 -22 999999 999999 999999 999999 999999 -10 -38 -21 -17 999999 999999 999999 999999 999999 999999 999999 999999 999999 999999 999999 999999 999999 999999 999999 999999 999999 999999 999999 999999 999999 999999 999999 999999 999999 999999 999999 999999 999999 999999 999999 999999 999999 999999 999999 999999 999999 999999 999999 999999 999999 999999 999999 999999 999999 999999 999999 999999 999999 999999 999999 999999 999999 999999 999999 999999 999999 999999 999999 999999 999999 999999 999999 999999 999999 999999 999999 999999 999999 999999 999999 999999 999999 999999 999999 999999 999999 999999 999999 999999 999999 999999 999999 999999 999999 999999 999999 999999 999999 999999 999999 999999 999999 999999 999999 999999 999999 999999 999999 999999 999999 999999 999999 999999 999999 999999 999999 999999 999999 999999 999999 999999 999999 999999 999999 999999 999999 999999 999999 999999 999999 999999 999999 999999 999999 999999 999999 999999 999999 999999 999999 999999 999999 999999 999999 999999 999999 999999 999999 999999 999999 999999 999999 999999 999999 999999 999999 999999 -77 -80 -90 -94 -95 -75 -82 -51 -38 -39 -34 -35 -10 999999 999999 999999 999999 999999 999999 999999 999999 999999 999999 999999 999999 999999 999999 999999 -101 -11 -23 999999 -133 -68 -35 -10 999999 999999 999999 999999 999999 999999 999999 999999 999999 999999 999999 999999 999999 999999 999999 999999 999999 999999 999999 999999 999999 999999 999999 999999 999999 999999 999999 999999 999999 999999 999999 999999 999999 999999 999999 999999 999999 999999 999999 999999 999999 999999 999999 999999 999999 999999 999999 999999 999999 999999 999999 999999 999999 999999 -23 -44 999999 999999 999999 999999 999999 999999 999999 999999 999999 999999 999999 999999 999999 999999 999999 999999 999999 999999 999999 999999 999999 999999 -176 -220 -394 -251 -310 -981 -2020 -2605 -2903 -2324 -4087 -4219 -4331 -4392 -4225
-4126 -4030 -3770 -4162 -4192 -3987 -3895 -3677 -3548 -3074 -2782 -3299 -3661 -3775 -3859 -3729 -3594 -3315 -4424 -3955 -4705 -4697 -4555 -3569 -463 -1197 -1184 -186 -33 999999 999999 -68 -100 -25 999999 999999 999999 999999 999999 999999 -33 -28 -21 999999 999999 999999 999999 999999 999999 999999 999999 999999 -13 -10 999999 999999 -107 -24 999999 999999 999999 999999 999999 999999 999999 999999 999999 999999 999999 999999 999999 999999 999999 999999 999999 999999 999999 999999 999999 999999 999999 999999 999999 999999 999999 999999 999999 999999 999999 999999 999999 999999 999999 999999 999999 999999 999999 999999 999999 999999 999999 999999 999999 999999 999999 999999 999999 999999 999999 999999 999999 999999 999999 999999 999999 999999 999999 999999 999999 999999 999999 999999 999999 999999 999999 999999 999999 999999 999999 999999 999999 999999 999999 999999 999999 999999 999999 999999 999999 999999 999999 999999 999999 999999 999999 999999 999999 999999 999999 999999 999999 999999 999999 999999 999999 999999 999999 999999 999999 999999 999999 999999 999999 999999 999999 999999 999999 999999 999999 999999 999999 999999 999999 999999 999999 999999 999999 999999 999999 999999 999999 999999 999999 999999 999999 999999 999999 999999 999999 999999 999999 -50 -80 -54 -99 -84 -85 -52 -100 -42 -16 -19 -22 -17 999999 999999 999999 999999 999999 999999 999999 999999 999999 999999 999999 999999 999999 999999 999999 999999 999999 999999 999999 999999 999999 999999 999999 999999 999999 999999 999999 999999 999999 999999 999999 999999 999999 999999 999999 999999 999999 999999 999999 999999 999999 999999 999999 999999 999999 999999 999999 999999 999999 999999 999999 999999 999999 999999 999999 999999 999999 999999 999999 999999 999999 999999 999999 999999 999999 999999 999999 999999 999999 999999 999999 999999 999999 999999 999999 999999 999999 -26 -33 999999 999999 999999 999999 999999 999999 999999 999999 999999 999999 999999 999999 999999 999999 999999 999999 999999 999999 999999 999999 999999 999999 -167 -262 -442 -216 -311 -1179 -2121 -2309 -1942 -3884 -4164 -4285 -4317 -4433 -4284
-4258 -3773 -4210 -3832 -3933 -3325 -4262 -3862 -3530 -2419 -3295 -3688 -3616 -4031 -3603 -3694 -3316 -3033 -4473 -3826 -4704 -4558 -4470 -2781 -373 -805 -810 -155 999999 999999 999999 999999 -62 -65 999999 999999 999999 999999 999999 -19 -27 -26 -24 -22 -23 -10 -10 999999 999999 999999 -10 -19 -52 -61 -21 -53 -87 -63 999999 999999 999999 999999 999999 999999 999999 999999 999999 999999 999999 999999 999999 999999 999999 999999 999999 999999 999999 999999 999999 999999 999999 999999 999999 999999 999999 999999 999999 999999 999999 999999 999999 999999 999999 999999 999999 999999 999999 999999 999999 999999 999999 999999 999999 999999 999999 999999 999999 999999 999999 999999 999999 999999 999999 999999 999999 999999 999999 999999 999999 999999 999999 999999 999999 999999 999999 999999 999999 999999 999999 999999 999999 999999 999999 999999 999999 999999 999999 999999 999999 999999 999999 999999 999999 999999 999999 999999 999999 999999 999999 999999 999999 999999 999999 999999 999999 999999 999999 999999 999999 999999 999999 999999 999999 999999 999999 999999 999999 999999 999999 999999 999999 999999 999999 999999 999999 999999 999999 999999 999999 999999 999999 999999 999999 999999 999999 999999 999999 999999 999999 999999 999999 -51 -72 -48 -81 -65 -49 -31 -44 -29 -29 -30 -26 -18 -10 -10 999999 999999 999999 999999 999999 999999 999999 999999 999999 999999 999999 999999 999999 999999 999999 999999 999999 999999 999999 999999 999999 999999 999999 999999 999999 999999 999999 999999 999999 999999 999999 999999 999999 999999 999999 999999 999999 999999 999999 999999 999999 999999 999999 999999 999999 999999 999999 999999 999999 999999 999999 999999 999999 999999 999999 999999 999999 999999 999999 999999 999999 999999 999999 999999 999999 999999 999999 999999 999999 999999 999999 999999 999999 999999 999999 -55 -28 999999 999999 999999 999999 999999 999999 999999 999999 999999 999999 999999 999999 999999 999999 999999 999999 999999 999999 999999 999999 999999 999999 -172 -208 -473 -220 -300 -937 -2313 -3030 -3176 -4093 -4164 -4172 -4296 -4295 -4179
-3513 -3665 -3734 -3489 -3459 -3978 -3484 -3456 -2944 -1393 -2748 -2943 -3508 -3505 -3836 -3743 -3542 -2662 -3981 -3907 -4611 -4399 -3701 -1620 -368 -447 -607 -132 -94 999999 999999 999999 999999 999999 999999 999999 999999 999999 -10 -15 -31 -35 -40 -38 -31 -37 -10 999999 999999 999999 -21 -47 -32 -91 -57 -64 -88 -71 -13 999999 999999 999999 999999 999999 999999 999999 999999 999999 999999 999999 999999 999999 999999 999999 999999 999999 999999 999999 999999 999999 999999 999999 999999 999999 999999 999999 999999 999999 999999 999999 999999 999999 999999 999999 999999 999999 999999 999999 999999 999999 999999 999999 999999 999999 999999 999999 999999 999999 999999 999999 999999 999999 999999 999999 999999 999999 999999 999999 999999 999999 999999 999999 999999 999999 999999 999999 999999 999999 999999 999999 999999 999999 999999 999999 999999 999999 999999 999999 999999 999999 999999 999999 999999 999999 999999 999999 999999 999999 999999 999999 999999 999999 999999 999999 999999 999999 999999 999999 999999 999999 999999 999999 999999 999999 999999 999999 999999 999999 999999 999999 999999 999999 999999 999999 999999 999999 999999 999999 999999 999999 999999 999999 999999 999999 999999 999999 999999 999999 999999 999999 999999 999999 -43 -20 -20 999999 999999 -64 -43 -45 -43 -28 -26 -14 -22 -18 999999 999999 999999 999999 999999 999999 999999 999999 999999 999999 999999 999999 999999 999999 999999 999999 999999 999999 999999 999999 999999 999999 999999 999999 999999 999999 999999 999999 999999 999999 999999 999999 999999 999999 999999 999999 999999 999999 999999 999999 999999 999999 999999 999999 999999 999999 999999 999999 999999 999999 999999 999999 999999 999999 999999 999999 999999 999999 999999 999999 999999 999999 999999 999999 999999 999999 999999 999999 999999 999999 999999 999999 999999 999999 -29 -36 -22 999999 999999 999999 999999 999999 999999 999999 999999 999999 999999 999999 999999 999999 999999 999999 999999 999999 999999 999999 999999 999999 999999 -156 -338 -280 -408 -256 -1185 -2879 -3463 -3668 -4026 -4126 -4224 -4244 -4490 -3912
-3386 -3610 -3632 -3690 -3531 -3410 -2903 -3526 -2676 -3022 -2972 -3543 -3791 -3795 -3227 -3271 -3284 -3632 -3793 -3740 -4240 -4229 -3615 -3084 -386 -309 -413 -130 -104 999999 999999 999999 999999 999999 999999 999999 999999 999999 -13 -38 -61 -43 -46 -41 -39 -26 -17 999999 999999 999999 999999 999999 -64 -59 -38 -58 -110 -94 -10 999999 999999 999999 999999 999999 999999 999999 999999 999999 999999 999999 999999 999999 999999 999999 999999 999999 999999 999999 999999 999999 999999 999999 999999 999999 999999 999999 999999 999999 999999 999999 999999 999999 999999 999999 999999 999999 999999 999999 999999 999999 999999 999999 999999 999999 999999 999999 999999 999999 999999 999999 999999 999999 999999 999999 999999 999999 999999 999999 999999 999999 999999 999999 999999 999999 999999 999999 999999 999999 999999 999999 999999 999999 999999 999999 999999 999999 999999 999999 999999 999999 999999 999999 999999 999999 999999 999999 999999 999999 999999 999999 999999 999999 999999 999999 999999 999999 999999 999999 999999 999999 999999 999999 999999 999999 999999 999999 999999 999999 999999 999999 999999 999999 999999 999999 999999 999999 999999 999999 999999 999999 999999 999999 999999 999999 999999 999999 999999 999999 999999 999999 999999 999999 999999 999999 999999 999999 999999 999999 -31 -45 -45 -19 999999 999999 999999 999999 999999 999999 999999 999999 999999 999999 999999 999999 999999 999999 999999 999999 999999 999999 999999 999999 999999 999999 999999 999999 999999 999999 999999 999999 999999 999999 999999 999999 999999 999999 999999 999999 999999 999999 999999 999999 999999 999999 999999 999999 999999 999999 999999 999999 999999 999999 999999 999999 999999 999999 999999 999999 999999 999999 999999 999999 999999 999999 999999 999999 999999 999999 999999 999999 999999 999999 999999 999999 999999 999999 999999 999999 999999 -18 -28 -49 -15 999999 999999 999999 999999 999999 999999 999999 999999 999999 999999 999999 999999 999999 999999 999999 999999 999999 999999 999999 999999 999999 999999 -149 -273 -271 -357 -342 -2353 -3159 -3680 -3881 -3971 -4150 -4187 -4316 -4207 -4447
-3518 -3584 -3382 -3339 -3515 -3537 -3531 -3123 -3718 -3633 -3042 -3781 -3819 -3514 -3553 -3649 -3512 -4000 -3710 -2758 -3658 -3760 -3522 -3033 -360 -192 -363 -145 -98 999999 999999 999999 999999 999999 999999 999999 999999 999999 -46 -48 -20 -36 -46 -39 -42 -28 -10 999999 999999 999999 999999 999999 999999 999999 -52 -50 -21 -131 -54 999999 999999 999999 999999 999999 999999 999999 999999 999999 999999 999999 999999 999999 999999 999999 999999 999999 999999 999999 999999 999999 999999 999999 999999 999999 999999 999999 999999 999999 999999 999999 999999 999999 999999 999999 999999 999999 999999 999999 999999 999999 999999 999999 999999 999999 999999 999999 999999 999999 999999 999999 999999 999999 999999 999999 999999 999999 999999 999999 999999 999999 999999 999999 999999 999999 999999 999999 999999 999999 999999 999999 999999 999999 999999 999999 999999 999999 999999 999999 999999 999999 999999 999999 999999 999999 999999 999999 999999 999999 999999 999999 999999 999999 999999 999999 999999 999999 999999 999999 999999 999999 999999 999999 999999 999999 999999 999999 999999 999999 999999 999999 999999 999999 999999 999999 999999 999999 999999 999999 999999 999999 999999 999999 999999 999999 999999 999999 999999 999999 999999 999999 999999 999999 999999 999999 999999 999999 999999 999999 -28 -52 -100 999999 999999 999999 999999 999999 999999 999999 999999 999999 999999 999999 999999 999999 999999 999999 999999 999999 999999 999999 999999 999999 999999 999999 999999 999999 999999 999999 999999 999999 999999 999999 999999 999999 999999 999999 999999 999999 999999 999999 999999 999999 999999 999999 999999 999999 999999 999999 999999 999999 999999 999999 999999 999999 999999 999999 999999 999999 999999 999999 999999 999999 999999 999999 999999 999999 999999 999999 999999 999999 999999 999999 999999 999999 999999 999999 999999 999999 999999 -23 -71 -41 999999 999999 999999 999999 999999 999999 999999 999999 999999 999999 999999 999999 999999 999999 999999 999999 999999 999999 999999 999999 999999 999999 999999 -219 -229 -243 -286 -1253 -2853 -3461 -3833 -4026 -3766 -4130 -4155 -3894 -4253 -3122
-3393 -3714 -3566 -3941 -3886 -3395 -3358 -2330 -3623 -3507 -3557 -3580 -3777 -3652 -3535 -3423 -4045 -4011 -3213 -2682 -2656 -3253 -2836 -3192 -1210 -208 -314 -208 -119 999999 999999 999999 999999 999999 999999 999999 999999 999999 -64 -71 -18 -26 -32 -45 -41 -31 -10 999999 999999 999999 999999 999999 999999 999999 999999 -75 -10 -143 -165 -26 -19 -38 999999 999999 999999 999999 999999 999999 999999 999999 999999 999999 999999 999999 999999 999999 999999 999999 999999 999999 999999 999999 999999 999999 999999 999999 999999 999999 999999 999999 999999 999999 999999 999999 999999 999999 999999 999999 999999 999999 999999 999999 999999 999999 999999 999999 999999 999999 999999 999999 999999 999999 999999 999999 999999 999999 999999 999999 999999 999999 999999 999999 999999 999999 999999 999999 999999 999999 999999 999999 999999 999999 999999 999999 999999 999999 999999 999999 999999 999999 999999 999999 999999 999999 999999 999999 999999 999999 999999 999999 999999 999999 999999 999999 999999 999999 999999 999999 999999 999999 999999 999999 999999 999999 999999 999999 999999 999999 999999 999999 999999 999999 999999 999999 999999 999999 999999 999999 999999 999999 999999 999999 999999 999999 999999 999999 999999 999999 999999 999999 999999 999999 999999 999999 999999 999999 999999 -11 -47 -39 -100 -10 999999 999999 999999 999999 999999 999999 999999 999999 999999 999999 999999 999999 999999 999999 999999 999999 999999 999999 999999 999999 999999 999999 999999 999999 999999 999999 999999 999999 999999 999999 999999 999999 999999 999999 999999 999999 999999 999999 999999 999999 999999 999999 999999 999999 999999 999999 999999 999999 999999 999999 999999 999999 999999 999999 999999 999999 999999 999999 999999 999999 999999 999999 999999 999999 999999 999999 999999 999999 999999 999999 999999 999999 999999 999999 999999 999999 999999 -35 -91 -16 999999 999999 999999 999999 999999 999999 999999 999999 999999 999999 999999 999999 999999 999999 999999 999999 999999 999999 999999 999999 999999 999999 999999 -178 -222 -206 -300 -1941 -3207 -3658 -3897 -4018 -3901 -4025 -4222 -4164 -2919 -3395
-3990 -4101 -3913 -3519 -2701 -2159 -3075 -2081 -3019 -3147 -3379 -3396 -3671 -3542 -3535 -3224 -3969 -3909 -2946 -2283 -2510 -2465 -2382 -2968 -2776 -1056 -874 -377 -130 999999 999999 999999 999999 999999 999999 999999 999999 999999 -68 -75 -47 -46 -34 -37 -48 -35 -25 999999 999999 999999 999999 999999 999999 999999 999999 -32 -100 -51 -115 -75 -10 -12 999999 999999 999999 999999 999999 999999 999999 999999 999999 999999 999999 999999 999999 999999 999999 999999 999999 999999 999999 999999 999999 999999 999999 999999 999999 999999 999999 999999 999999 999999 999999 999999 999999 999999 999999 999999 999999 999999 999999 999999 999999 999999 999999 999999 999999 999999 999999 999999 999999 999999 999999 999999 999999 999999 999999 999999 999999 999999 999999 999999 999999 999999 999999 999999 999999 999999 999999 999999 999999 999999 999999 999999 999999 999999 999999 999999 999999 999999 999999 999999 999999 999999 999999 999999 999999 999999 999999 999999 999999 999999 999999 999999 999999 999999 999999 999999 999999 999999 999999 999999 999999 999999 999999 999999 999999 999999 999999 999999 999999 999999 999999 999999 999999 999999 999999 999999 999999 999999 999999 999999 999999 999999 999999 999999 999999 999999 999999 999999 999999 999999 999999 999999 -29 -44 -47 -46 -50 -41 -35 -23 -20 999999 999999 999999 999999 999999 999999 999999 999999 999999 999999 999999 999999 999999 999999 999999 999999 999999 999999 999999 999999 999999 999999 999999 999999 999999 999999 999999 999999 999999 999999 999999 999999 999999 999999 999999 999999 999999 999999 999999 999999 999999 999999 999999 999999 999999 999999 999999 999999 999999 999999 999999 999999 999999 999999 999999 999999 999999 999999 999999 999999 999999 999999 999999 999999 999999 999999 999999 999999 999999 999999 999999 -24 -66 -70 -55 -23 -64 -96 -124 -62 999999 999999 999999 999999 999999 999999 999999 999999 999999 999999 999999 999999 999999 999999 999999 999999 999999 999999 999999 999999 999999 999999 -245 -442 -462 -1165 -2809 -3327 -3669 -3902 -4000 -3972 -3908 -3840 -3661 -3920 -3765
-3553 -3468 -3262 -2954 -2364 -2576 -2444 -3014 -3086 -3105 -3327 -3447 -3659 -3659 -3531 -3446 -3957 -3784 -2809 -1536 -2256 -2430 -2349 -2718 -2716 -2980 -2965 -2653 -345 -96 -56 999999 999999 999999 999999 999999 999999 999999 -59 -67 -97 -74 -67 -43 -60 -30 -29 999999 999999 999999 999999 999999 999999 999999 999999 -10 -106 -110 -119 -91 -34 999999 999999 999999 999999 999999 999999 999999 999999 999999 999999 999999 999999 999999 999999 999999 999999 999999 999999 999999 999999 999999 999999 999999 999999 999999 999999 999999 999999 999999 999999 999999 999999 999999 999999 999999 999999 999999 999999 999999 999999 999999 999999 999999 999999 999999 999999 999999 999999 999999 999999 999999 999999 999999 999999 999999 999999 999999 999999 999999 999999 999999 999999 999999 999999 999999 999999 999999 999999 999999 999999 999999 999999 999999 999999 999999 999999 999999 999999 999999 999999 999999 999999 999999 999999 999999 999999 999999 999999 999999 999999 999999 999999 999999 999999 999999 999999 999999 999999 999999 999999 999999 999999 999999 999999 999999 999999 999999 999999 999999 999999 999999 999999 999999 999999 999999 999999 999999 -14 -10 -10 -10 -12 999999 999999 999999 999999 999999 999999 999999 999999 -14 -40 -46 -48 -49 -51 -49 -50 -54 -38 -30 -29 999999 999999 999999 999999 999999 999999 999999 999999 999999 999999 999999 999999 999999 999999 999999 999999 999999 999999 999999 999999 999999 999999 999999 999999 999999 999999 999999 999999 999999 999999 999999 999999 999999 999999 999999 999999 999999 999999 999999 999999 999999 999999 999999 999999 999999 999999 999999 999999 999999 999999 999999 999999 999999 999999 999999 999999 999999 999999 999999 999999 999999 999999 999999 999999 999999 999999 999999 999999 999999 -21 -27 -42 -81 -129 -73 -60 -95 -108 -77 -120 -34 999999 999999 999999 999999 999999 999999 999999 999999 999999 999999 999999 999999 999999 999999 999999 999999 999999 999999 999999 999999 -25 -265 -172 -287 -1810 -3063 -3590 -3804 -3853 -3916 -3978 -3943 -3647 -3548 -3376 -3554
-3220 -2929 -2882 -1973 -2027 -2231 -2788 -2884 -3095 -3213 -3221 -3301 -3555 -3283 -3622 -3583 -3698 -3725 -2878 -1379 -1590 -1765 -2443 -2462 -2752 -2790 -2918 -2830 -2533 -121 -82 -10 -47 999999 999999 999999 999999 -65 -68 -108 -124 -78 -67 -44 -35 -37 -26 -21 -16 -10 999999 999999 999999 999999 999999 999999 -89 -196 -124 -160 -134 -26 -63 -41 -63 -58 -14 999999 999999 999999 999999 999999 999999 999999 999999 999999 999999 999999 999999 999999 999999 999999 999999 999999 999999 999999 999999 999999 999999 999999 999999 999999 999999 999999 999999 999999 999999 999999 999999 999999 999999 999999 999999 999999 999999 999999 999999 999999 999999 999999 999999 999999 999999 999999 999999 999999 999999 999999 999999 999999 999999 999999 999999 999999 999999 999999 999999 999999 999999 999999 999999 999999 999999 999999 999999 999999 999999 999999 999999 999999 999999 999999 999999 999999 999999 999999 999999 999999 999999 999999 999999 999999 999999 999999 999999 999999 999999 999999 999999 999999 999999 999999 999999 999999 999999 999999 999999 999999 999999 999999 999999 999999 999999 999999 999999 999999 -10 -14 -19 -20 -36 -10 -20 999999 999999 999999 999999 999999 -26 -35 -46 -49 -51 -50 -50 -51 -54 -56 -58 -53 -24 999999 999999 999999 999999 999999 999999 999999 999999 999999 999999 999999 999999 999999 999999 999999 999999 999999 999999 999999 999999 999999 999999 999999 999999 999999 999999 999999 999999 999999 999999 999999 999999 999999 999999 999999 999999 999999 999999 999999 999999 999999 999999 999999 999999 999999 999999 999999 999999 999999 999999 999999 999999 999999 999999 999999 999999 999999 999999 999999 999999 999999 999999 999999 999999 999999 999999 999999 -31 -49 -29 -38 -44 -51 -58 -102 -152 -99 -98 -156 -89 -63 -51 -161 999999 999999 999999 999999 999999 999999 999999 999999 999999 999999 999999 999999 999999 999999 999999 999999 999999 999999 999999 -77 -224 -171 -201 -724 -2222 -3103 -3625 -3635 -3898 -3816 -3738 -3672 -3641 -3766 -3522 -3366
-3288 -2877 -2763 -2484 -1731 -2044 -2477 -2777 -2772 -3140 -3111 -3152 -3289 -3539 -2941 -3214 -3629 -3541 -2976 -1934 -1378 -1002 -1902 -2393 -2303 -2765 -2877 -2827 -2548 -1663 -95 -81 -44 999999 999999 999999 999999 -41 -66 -90 -119 -70 -60 -55 -57 -80 -188 -178 -37 -70 -10 999999 999999 999999 999999 999999 999999 999999 -70 -69 -65 -27 -10 -10 -10 -18 -10 999999 999999 999999 999999 999999 999999 999999 999999 999999 999999 999999 999999 999999 999999 999999 999999 999999 999999 999999 999999 999999 999999 999999 999999 999999 999999 999999 999999 999999 999999 999999 999999 999999 999999 999999 999999 999999 999999 999999 999999 999999 999999 999999 999999 999999 999999 999999 999999 999999 999999 999999 999999 999999 999999 999999 999999 999999 999999 999999 999999 999999 999999 999999 999999 999999 999999 999999 999999 999999 999999 999999 999999 999999 999999 999999 999999 999999 999999 999999 999999 999999 999999 999999 999999 999999 999999 999999 999999 999999 999999 999999 999999 999999 999999 999999 999999 999999 999999 999999 999999 999999 999999 -12 -10 999999 -10 -10 -10 -15 -15 -18 -20 -28 -35 -27 -25 -31 -36 -39 -44 -49 -45 -48 -45 -49 -54 -53 -53 -53 -53 -55 -49 -42 -18 999999 999999 999999 999999 999999 999999 999999 999999 999999 999999 999999 999999 999999 999999 999999 999999 999999 999999 999999 999999 999999 999999 999999 999999 999999 999999 999999 999999 999999 999999 999999 999999 999999 999999 999999 999999 999999 999999 999999 999999 999999 999999 999999 999999 999999 999999 999999 999999 999999 999999 999999 999999 999999 999999 999999 999999 999999 999999 999999 999999 999999 999999 999999 999999 999999 999999 999999 -51 -80 -54 -78 -62 -68 -80 -109 -167 -138 -109 -153 -44 -14 -18 -53 999999 999999 999999 999999 999999 999999 999999 999999 999999 999999 999999 999999 999999 999999 999999 999999 999999 999999 999999 -79 -330 -190 -222 -1500 -2766 -3307 -3655 -3886 -3843 -3689 -3564 -3675 -3599 -3616 -3617 -3398
-2825 -2807 -2639 -2069 -1738 -2100 -2463 -2624 -2967 -2988 -3132 -2877 -3088 -3458 -1889 -3009 -2975 -3305 -2985 -2277 -1385 -1150 -818 -1505 -2273 -2551 -2752 -2852 -2591 -2213 -182 -105 -56 -10 999999 999999 999999 -58 -67 -91 -121 -109 -76 -60 -74 -264 -423 -262 -476 -461 -54 999999 999999 999999 999999 999999 999999 999999 -11 -106 -13 999999 999999 999999 999999 999999 999999 999999 999999 999999 999999 999999 999999 999999 999999 999999 999999 999999 999999 999999 999999 999999 999999 999999 999999 999999 999999 999999 999999 999999 999999 999999 999999 999999 999999 999999 999999 999999 999999 999999 999999 999999 999999 999999 999999 999999 999999 999999 999999 999999 999999 999999 999999 999999 999999 999999 999999 999999 999999 999999 999999 999999 999999 999999 999999 999999 999999 999999 999999 999999 999999 999999 999999 999999 999999 999999 999999 999999 999999 999999 999999 999999 999999 999999 999999 999999 999999 999999 999999 999999 999999 999999 999999 -16 -15 -17 -17 -15 -13 999999 999999 999999 999999 999999 999999 999999 999999 -10 -15 -15 -15 -15 -14 -15 -15 -20 -20 -21 -22 -25 -32 -48 -34 -40 -40 -37 -39 -34 -27 -39 -41 -51 -60 -52 -49 -47 -45 -50 -49 -43 -32 -19 999999 999999 999999 999999 999999 999999 999999 999999 999999 999999 999999 999999 999999 999999 999999 999999 999999 999999 999999 999999 999999 999999 999999 999999 999999 999999 999999 999999 999999 999999 999999 999999 999999 999999 999999 999999 999999 999999 999999 999999 999999 999999 999999 999999 999999 999999 999999 999999 999999 999999 999999 999999 999999 999999 999999 999999 999999 999999 999999 999999 999999 999999 999999 999999 -38 -10 -71 -74 -117 -75 -153 -138 -122 -95 -168 -154 -118 -143 -28 -59 -46 -68 999999 999999 999999 999999 999999 999999 999999 999999 999999 999999 999999 999999 999999 999999 999999 999999 999999 -10 -34 -271 -275 -213 -324 -1854 -2688 -3304 -3598 -3753 -3718 -3498 -3331 -3686 -3473 -3312 -3357 -3227
-2990 -2740 -2401 -1980 -1684 -2003 -2474 -2714 -2877 -2961 -3135 -2873 -3276 -3466 -2924 -2708 -2986 -2897 -2598 -1473 -1506 -1414 -619 -415 -379 -2290 -2670 -2747 -2617 -2022 -158 -148 -26 -111 999999 999999 999999 999999 -76 -71 -92 -111 -59 -85 -191 -327 999999 999999 999999 -320 -76 999999 999999 999999 999999 999999 999999 999999 -10 -10 -10 999999 999999 999999 999999 999999 999999 999999 999999 999999 999999 999999 999999 999999 999999 999999 999999 999999 999999 999999 999999 999999 999999 999999 999999 999999 999999 999999 999999 999999 999999 999999 999999 999999 999999 999999 999999 999999 999999 999999 999999 999999 999999 999999 999999 999999 999999 999999 999999 999999 999999 999999 999999 999999 999999 999999 999999 999999 999999 999999 999999 999999 999999 999999 999999 999999 999999 999999 999999 999999 999999 999999 999999 999999 999999 999999 999999 999999 999999 999999 999999 999999 999999 999999 999999 999999 999999 999999 999999 999999 999999 999999 999999 -18 -22 -15 -10 -14 -23 -12 999999 999999 999999 999999 999999 -10 -10 -15 -15 -26 -25 -19 -20 -21 -20 -21 -23 -25 -25 -25 -28 -30 -40 -40 -35 -35 -28 -31 999999 999999 -10 -45 -70 -44 -28 -29 -24 -36 -50 -46 -39 -29 999999 999999 999999 999999 999999 999999 999999 999999 999999 999999 999999 999999 999999 999999 999999 999999 999999 999999 999999 999999 999999 999999 999999 999999 999999 999999 999999 999999 999999 999999 999999 999999 999999 999999 999999 999999 999999 999999 999999 999999 999999 999999 999999 999999 999999 999999 999999 999999 999999 999999 999999 999999 999999 999999 999999 999999 999999 999999 999999 999999 999999 999999 999999 999999 -77 -74 -96 -102 -126 -125 -162 -169 -100 -101 -170 -148 -127 -115 -12 -50 -59 -49 999999 999999 999999 999999 999999 999999 999999 999999 999999 999999 999999 999999 999999 999999 999999 999999 -35 -371 -259 -156 -264 -557 -1448 -2528 -2726 -3306 -3549 -3732 -3561 -3401 -3408 -3469 -3387 -3356 -3259 -3273
-3194 -3038 -2909 -2590 -2252 -1175 -2251 -2559 -2925 -2965 -3173 -2901 -2932 -3334 -3052 -2305 -2253 -1775 -1451 -1728 -1507 -1350 -797 -434 -258 -751 -2386 -2451 -2531 -2174 -1290 -134 -118 -91 999999 999999 999999 999999 -83 -93 -148 -111 -63 -131 -278 -250 999999 999999 999999 999999 999999 999999 999999 999999 999999 999999 999999 999999 -31 -66 -59 999999 999999 999999 999999 999999 999999 999999 999999 999999 999999 999999 999999 999999 999999 999999 999999 999999 999999 999999 999999 999999 999999 999999 999999 999999 999999 999999 999999 999999 999999 999999 999999 999999 999999 999999 999999 999999 999999 999999 999999 999999 999999 999999 999999 999999 999999 999999 999999 999999 999999 999999 999999 999999 999999 999999 999999 999999 999999 999999 999999 999999 999999 999999 999999 999999 999999 999999 999999 999999 999999 999999 999999 999999 999999 999999 999999 999999 999999 999999 999999 999999 999999 999999 999999 999999 -10 -10 999999 999999 999999 999999 -10 -26 -16 -10 -18 -21 -20 -11 999999 999999 -10 -10 -10 -12 -15 -15 -15 -25 -34 -24 -22 -24 -24 -25 -26 -28 -29 -30 -30 -33 -40 -38 -38 -38 -40 -39 -38 -33 -25 -33 -63 -48 -49 -47 -40 -41 -49 -39 -43 -32 -11 999999 999999 999999 999999 999999 999999 999999 999999 999999 999999 999999 999999 999999 999999 999999 999999 999999 999999 999999 999999 999999 999999 999999 999999 999999 999999 999999 999999 999999 999999 999999 999999 999999 999999 999999 999999 999999 999999 999999 999999 999999 999999 999999 999999 999999 999999 999999 999999 999999 999999 999999 999999 999999 999999 999999 999999 999999 999999 999999 999999 999999 999999 -30 -74 -98 -119 -118 -116 -166 -181 -183 -104 -111 -173 -158 -149 -135 -63 -106 -75 999999 999999 999999 999999 999999 999999 999999 999999 999999 999999 999999 999999 999999 999999 999999 999999 -48 -103 -600 -173 -1926 -1885 -2368 -2789 -3154 -3289 -3340 -3669 -3978 -3629 -3167 -3505 -3416 -3323 -3434 -3215 -3114
-2960 -3042 -2814 -2613 -1546 -1677 -2203 -2584 -2613 -2971 -2894 -2838 -2738 -3034 -3290 -2650 -2334 -1193 -1551 -1443 -1386 -1354 -724 -570 -398 -195 -1502 -2211 -2269 -2325 -1483 -137 -11 -99 999999 999999 999999 -73 -66 -125 -153 -127 -95 -126 -242 -187 999999 999999 999999 999999 999999 999999 999999 999999 999999 999999 999999 999999 -43 -74 -106 -28 999999 999999 999999 999999 999999 999999 999999 999999 999999 999999 999999 999999 999999 999999 999999 999999 999999 999999 999999 999999 999999 999999 999999 999999 999999 999999 999999 999999 999999 999999 999999 999999 999999 999999 999999 999999 999999 999999 999999 999999 999999 999999 999999 999999 999999 999999 999999 999999 999999 999999 999999 999999 999999 999999 999999 999999 999999 999999 999999 999999 999999 999999 999999 999999 999999 999999 999999 999999 999999 999999 999999 999999 999999 999999 999999 999999 999999 999999 999999 999999 999999 999999 999999 -10 -15 -11 -10 -10 -10 -22 -19 -19 -12 -10 -14 -10 -20 -14 999999 999999 -10 -11 -15 -15 -15 -13 -16 -25 -36 -25 -25 -27 -30 -30 -30 -35 -34 -36 -35 -35 -40 -40 -43 -50 -50 -48 -50 -52 -66 -85 -53 -54 -55 -55 -49 -46 -44 -38 -41 -42 -34 -44 999999 999999 999999 999999 999999 999999 999999 999999 999999 999999 999999 999999 999999 999999 999999 999999 999999 999999 999999 999999 999999 999999 999999 999999 999999 999999 999999 999999 999999 999999 999999 999999 999999 999999 999999 999999 999999 999999 999999 999999 999999 999999 999999 999999 999999 999999 999999 999999 999999 999999 999999 999999 999999 999999 999999 999999 999999 999999 999999 999999 999999 -33 -106 -91 -128 -141 -139 -166 -191 -180 -61 -110 -203 -144 -159 -112 -100 -67 -113 999999 999999 999999 999999 999999 999999 999999 999999 999999 999999 999999 999999 999999 999999 999999 999999 -73 -522 -431 -376 -2323 -2819 -3053 -3111 -3161 -3385 -3577 -3689 -3677 -3506 -3131 -3329 -3370 -3380 -3395 -3189 -2988
-3127 -3281 -2635 -2358 -2205 -1611 -1841 -2208 -2660 -2714 -2788 -2779 -2709 -3051 -3139 -3269 -2482 -2228 -1849 -1485 -1368 -1287 -1252 -1111 -920 -191 -240 -1788 -1965 -2184 -705 -149 -72 -90 -98 999999 999999 -54 -103 -119 -164 -114 -113 -144 -278 -124 999999 999999 999999 999999 999999 999999 999999 999999 999999 999999 999999 999999 -62 -52 -112 -49 999999 999999 999999 999999 999999 999999 999999 999999 999999 999999 999999 999999 999999 999999 999999 999999 -15 -87 999999 999999 999999 999999 999999 999999 999999 999999 999999 999999 999999 999999 999999 999999 999999 999999 999999 999999 999999 999999 999999 999999 999999 999999 -24 -20 999999 999999 999999 999999 999999 999999 999999 999999 999999 999999 999999 999999 999999 999999 999999 999999 999999 999999 999999 999999 999999 999999 999999 999999 999999 999999 999999 999999 999999 999999 999999 999999 999999 999999 999999 999999 -21 -13 -10 -15 -20 -15 -13 -21 -32 -30 -35 -26 -17 -15 -23 -25 -21 999999 999999 999999 -10 -10 -10 -10 -10 -10 -10 -17 -27 -40 -37 -37 -40 -43 -45 -43 -43 -44 -45 -43 -44 -44 -46 -49 -54 -68 -72 -79 -90 -72 -59 -66 -60 -59 -51 -48 -46 -40 -39 -46 -48 -55 -50 -16 999999 999999 999999 999999 999999 999999 999999 999999 999999 999999 999999 999999 999999 999999 999999 999999 999999 999999 999999 999999 999999 999999 999999 999999 999999 999999 999999 999999 999999 999999 999999 999999 999999 999999 999999 999999 999999 999999 999999 999999 999999 999999 999999 999999 999999 999999 999999 999999 999999 999999 999999 999999 999999 999999 999999 999999 999999 999999 999999 -30 -121 -113 -133 -135 -135 -173 -206 -185 -140 -125 -177 -162 -159 -100 -147 999999 999999 999999 999999 999999 999999 999999 999999 999999 999999 999999 999999 999999 999999 999999 999999 999999 999999 -130 -116 -264 -1482 -2508 -2936 -3136 -3311 -3538 -3599 -3659 -3805 -3753 -3581 -3277 -3310 -3204 -3396 -3268 -3356 -3524
-3228 -3218 -2791 -2282 -2041 -1329 -2134 -2183 -2292 -2677 -3022 -2841 -2690 -2756 -2940 -3118 -3147 -2588 -2177 -1663 -1001 -1265 -1290 -1229 -1032 -318 -140 -1413 -1793 -2099 -1624 -139 -87 -53 -109 -58 -87 -60 -84 -126 -140 -118 -123 -113 -273 -239 999999 999999 999999 999999 999999 999999 999999 999999 999999 999999 999999 999999 -52 -80 -100 -59 -19 999999 999999 999999 999999 999999 999999 999999 999999 999999 999999 999999 999999 999999 999999 -74 -103 -89 -53 -54 -26 -11 999999 999999 999999 -11 -10 999999 999999 999999 999999 999999 999999 999999 999999 -10 -10 -10 999999 999999 -12 -50 -50 -24 999999 999999 999999 999999 999999 999999 999999 999999 999999 999999 999999 999999 999999 999999 999999 999999 999999 999999 999999 999999 999999 999999 999999 999999 999999 999999 999999 999999 999999 999999 999999 999999 999999 999999 999999 999999 -34 -30 -13 -21 -36 -19 -29 -40 -31 -37 -35 -42 -19 -20 -35 999999 999999 999999 999999 999999 999999 999999 999999 999999 999999 -15 -16 -19 -30 -39 -41 -44 -45 -48 -51 -52 -51 -54 -54 -56 -51 -50 -52 -55 -61 -100 -105 -117 -156 -143 -86 -73 -77 -83 -60 -54 -52 -48 -39 -31 -40 -52 -62 -132 -20 -21 -23 -14 -19 -16 -10 -10 -10 -14 999999 999999 999999 999999 999999 999999 999999 999999 999999 999999 999999 999999 999999 999999 999999 999999 999999 999999 999999 999999 999999 999999 999999 999999 999999 999999 999999 999999 999999 999999 999999 999999 999999 999999 999999 999999 999999 999999 999999 999999 999999 999999 999999 999999 999999 999999 999999 999999 999999 -15 -98 -101 -129 -132 -153 -197 -198 -192 -146 -114 -186 -149 -105 -106 -83 999999 999999 999999 999999 999999 999999 999999 999999 999999 999999 999999 999999 999999 999999 999999 999999 999999 -125 -212 -157 -904 -1969 -2609 -2929 -3212 -3371 -3532 -3595 -3644 -3676 -3654 -3611 -3470 -3493 -3367 -3457 -3425 -3021 -2901
-3154 -2950 -2634 -2335 -2402 -2318 -1730 -1726 -1726 -2472 -2381 -2893 -2829 -2790 -2815 -2864 -3083 -3166 -2652 -1783 -1018 -723 -1292 -1170 -1096 -543 -212 -1536 -1739 -1899 -1856 -490 -248 -97 -103 -74 -66 -73 -91 -122 -134 -129 -104 -111 -288 -284 999999 999999 999999 999999 999999 999999 999999 999999 999999 999999 999999 999999 999999 -83 -133 -55 -10 -10 999999 999999 999999 999999 999999 999999 999999 999999 999999 999999 999999 999999 999999 -204 -109 -10 -10 -15 -43 -42 -26 999999 999999 -14 -52 -35 -26 -29 -10 -10 -10 -10 -16 -20 -24 -28 999999 -158 -193 -149 -70 -20 -10 999999 999999 999999 999999 999999 999999 999999 999999 999999 999999 -10 -10 999999 999999 999999 999999 999999 999999 999999 999999 999999 999999 999999 999999 999999 999999 999999 999999 999999 999999 999999 999999 999999 999999 999999 999999 -43 -19 -26 -40 -49 -52 -44 -47 -44 -44 -48 -30 -28 -43 -20 999999 999999 999999 999999 -21 -30 -30 -31 -30 -25 -32 -35 -41 -41 -42 -45 -45 -49 -60 -68 -66 -64 -96 -98 -97 -115 -117 -116 -113 -142 -184 -200 -201 -185 -179 -154 -137 -118 -94 -63 -74 -91 -72 -55 -57 -56 -124 -264 -738 -132 -1019 -1088 -1436 -89 -799 -64 -97 -54 -49 -45 -53 -40 -47 -56 -10 999999 999999 999999 999999 999999 999999 999999 999999 999999 999999 999999 999999 999999 999999 999999 999999 999999 999999 999999 999999 999999 999999 999999 999999 999999 999999 999999 999999 999999 999999 999999 999999 999999 999999 999999 999999 999999 999999 999999 999999 999999 999999 999999 -79 -138 -124 -146 -156 -187 -193 -177 -168 -153 -173 -138 -133 -115 -88 999999 999999 999999 999999 999999 999999 999999 999999 999999 999999 999999 999999 999999 999999 999999 999999 999999 -138 -151 -413 -1784 -2506 -2802 -3040 -3297 -3401 -3512 -3551 -3577 -3625 -3634 -3553 -3479 -3611 -3490 -3482 -2971 -3284 -3155
-3221 -2867 -2864 -2399 -2104 -1511 -2208 -1515 -2408 -2207 -2481 -2661 -2659 -2807 -2729 -2798 -2974 -3030 -2685 -2336 -1384 -806 -814 -1154 -1151 -639 -492 -1519 -1690 -1832 -1876 -1715 -1479 -403 -100 -122 -100 -89 -85 -108 -127 -135 -115 -90 -310 -316 999999 999999 999999 999999 999999 999999 999999 999999 999999 999999 999999 999999 999999 999999 999999 -42 -12 -27 -10 999999 999999 999999 999999 999999 999999 999999 999999 999999 999999 999999 999999 999999 999999 999999 999999 999999 -19 -48 -65 -28 999999 -10 -50 -50 -21 -12 -28 -37 -26 -47 -50 -56 -50 999999 -79 -144 -136 -184 -161 -123 -100 -19 -10 999999 999999 999999 999999 999999 999999 -10 -10 -10 -12 999999 999999 -25 -15 999999 999999 999999 999999 999999 999999 999999 999999 999999 999999 999999 999999 999999 999999 999999 999999 999999 999999 999999 999999 -22 -41 -39 -44 -63 -82 -75 -69 -54 -55 -61 -50 -38 -27 -24 -23 -20 -20 -24 -35 -36 -36 -37 -42 -40 -40 -40 -46 -51 -61 -62 -57 -65 -71 -99 -155 -165 -192 -203 -230 -258 -357 -458 -535 -338 -277 -231 -242 -271 -249 -195 -190 -204 -163 -151 -160 -181 -319 -1226 -1556 -1902 -2368 -2910 -3092 -3019 -3165 -3135 -3188 -2956 -3032 -2583 -2717 -1920 -1671 -1458 -899 -682 -230 -40 -19 -10 999999 999999 999999 999999 999999 999999 999999 999999 999999 999999 999999 999999 999999 999999 999999 999999 999999 999999 999999 999999 999999 999999 999999 999999 999999 999999 999999 999999 999999 999999 999999 999999 999999 999999 999999 999999 999999 999999 999999 999999 999999 999999 -24 -139 -125 -144 -173 -207 -210 -209 -184 -176 -168 -71 -128 -147 -110 999999 999999 999999 999999 999999 999999 999999 999999 999999 999999 -11 -23 999999 999999 999999 999999 -96 -264 -275 -1600 -2381 -2764 -2856 -3097 -3298 -3431 -3519 -3554 -3615 -3619 -3592 -3417 -3454 -3512 -3520 -3555 -3416 -3417 -3307
-3337 -2572 -3224 -2445 -2471 -2479 -1275 -1293 -1514 -2030 -2465 -2431 -2501 -2669 -2723 -2793 -2924 -3020 -2988 -2525 -1709 -1003 -777 -1093 -1178 -1077 -647 -1521 -1675 -2042 -458 -1556 -1394 -1065 -332 -163 -126 -124 -85 -22 -107 -133 -140 -123 -333 -353 -79 999999 999999 999999 999999 999999 999999 999999 999999 999999 999999 999999 999999 999999 999999 999999 -10 -46 -95 -62 -12 999999 999999 999999 999999 999999 999999 999999 999999 999999 999999 999999 999999 999999 999999 999999 999999 -53 -50 -50 -17 -16 -58 -56 -49 -12 -22 -49 -53 -74 -76 -99 -19 999999 -189 -173 -63 -86 -99 -105 -113 -115 -86 -22 999999 999999 -11 -21 -10 -10 -17 -20 -29 -36 -35 -21 -15 999999 999999 999999 999999 999999 999999 999999 999999 999999 999999 999999 999999 999999 999999 999999 999999 999999 999999 999999 -10 -30 -59 -42 -58 -76 -86 -91 -100 -90 -79 -72 -61 -52 -46 -45 -30 -27 -28 -30 -34 -35 -36 -42 -46 -49 -49 -52 -100 -100 -81 -89 -99 -120 -184 -209 -216 -244 -266 -322 -335 -586 -826 -1022 -1099 -1164 -1286 -1042 -628 -477 -434 -233 -197 -352 -373 -402 -616 -628 -1067 -3178 -3326 -3531 -3457 -3866 -3853 -3828 -3734 -3721 -3673 -3569 -3450 -3308 -3159 -3060 -2820 -2346 -2094 -1691 -1361 -554 -60 -37 -23 -10 999999 999999 999999 999999 999999 999999 999999 999999 999999 999999 999999 999999 999999 999999 999999 999999 999999 999999 999999 999999 999999 999999 999999 999999 999999 999999 999999 999999 999999 999999 999999 999999 999999 999999 999999 999999 999999 999999 999999 999999 -10 -95 -150 -157 -175 -190 -204 -196 -201 -108 -175 -89 -126 -152 -88 999999 999999 999999 999999 999999 999999 999999 999999 999999 -32 -79 -134 999999 999999 999999 999999 -223 -159 -230 -2064 -2609 -2980 -3066 -3296 -3378 -3471 -3530 -3513 -3659 -3585 -3407 -3021 -3162 -3197 -3456 -3427 -3360 -3219 -3231
-3209 -3234 -2998 -2989 -2567 -2145 -1892 -2108 -1652 -2123 -1983 -2294 -2460 -2566 -2717 -2727 -2900 -2961 -2951 -2909 -2837 -1228 -605 -1120 -1088 -1112 -689 -1428 -1445 -1622 -1422 -1372 -1137 -613 -436 -890 -716 -426 -138 -111 -101 -129 -147 -152 -370 -341 -51 999999 999999 999999 999999 999999 999999 999999 999999 999999 999999 999999 999999 999999 999999 999999 999999 -10 -67 -64 -46 999999 999999 999999 999999 999999 999999 999999 999999 999999 999999 999999 999999 999999 999999 999999 999999 -101 -55 -59 -55 -54 -65 -63 -58 -51 -56 -81 -99 -149 -93 999999 999999 -52 -158 -176 -125 -105 -109 -79 -74 -61 -97 -51 -20 -10 -10 -20 -22 -14 -21 -32 -30 -10 -38 -27 -47 -21 -29 -38 999999 999999 999999 999999 999999 999999 -10 -25 -22 999999 999999 999999 999999 -19 -28 -39 -39 -60 -65 -68 -439 -490 -1192 -1473 -1784 -1928 -1176 -1064 -112 -77 -68 -64 -57 -55 -52 -51 -44 -45 -49 -49 -57 -64 -69 -71 -77 -88 -95 -103 -156 -186 -225 -272 -306 -381 -462 -873 -1017 -1209 -1154 -1097 -812 -1666 -2040 -2122 -1985 -1749 -759 -177 -187 -479 -597 -1561 -1837 -1733 -709 -1785 -3863 -3870 -3868 -3855 -3809 -3784 -3749 -3683 -3649 -3564 -3470 -3280 -3174 -3013 -2856 -2589 -2245 -1832 -1355 -734 -97 -59 -37 -29 -10 999999 999999 999999 999999 999999 999999 999999 999999 999999 999999 999999 999999 999999 999999 999999 999999 999999 999999 999999 999999 999999 999999 999999 999999 999999 999999 999999 999999 999999 999999 999999 999999 999999 999999 999999 999999 999999 999999 999999 999999 -100 -167 -130 -142 -142 -170 -174 -194 -206 -174 -120 -81 -113 -43 999999 999999 999999 999999 999999 999999 999999 999999 -10 -88 -210 -160 999999 999999 999999 -153 -201 -169 -858 -2097 -2671 -2967 -3286 -3281 -3405 -3530 -3441 -3563 -3565 -3463 -3310 -3082 -2825 -2702 -3000 -3393 -3295 -3282 -3235
-3128 -3290 -3144 -2694 -2285 -2173 -2031 -1831 -1501 -1683 -2416 -2180 -2165 -2175 -2465 -2760 -2700 -2907 -2907 -2877 -2807 -3003 -1392 -867 -594 -1494 -1074 -1173 -1228 -573 -1137 -1064 -627 -921 -801 -485 -915 -1081 -932 -532 -197 -116 -161 -328 -401 -352 -193 -72 999999 999999 999999 999999 999999 999999 999999 999999 999999 999999 999999 999999 999999 999999 999999 999999 999999 999999 999999 999999 999999 999999 999999 999999 999999 999999 999999 999999 999999 999999 999999 999999 999999 999999 -100 -124 -141 -80 -79 -51 -88 -92 -97 -101 -101 -83 -108 -152 -90 999999 999999 -42 -306 -282 -152 -140 -112 -98 -96 -89 -84 -42 -33 -19 -16 -19 -22 -21 -26 -32 -39 -32 -40 -25 -42 -45 -40 -51 -43 -50 -35 -44 -49 -10 -38 -45 -52 -21 999999 999999 999999 -13 -182 -240 -281 -330 -163 -583 -1493 -1945 -2198 -2400 -2427 -2480 -2750 -2495 -2236 -1872 -1687 -370 -97 -85 -69 -71 -69 -68 -66 -66 -69 -78 -84 -91 -96 -100 -161 -203 -234 -252 -272 -391 -621 -913 -1113 -1207 -1198 -1002 -1114 -1416 -1366 -1620 -2008 -2203 -2214 -2148 -1710 -339 -318 -563 -1381 -2046 -2103 -1897 -889 -1323 -3871 -3854 -3855 -3857 -3794 -3770 -3761 -3706 -3669 -3584 -3520 -3432 -3341 -3201 -2969 -2645 -2383 -2190 -2014 -1542 -900 -323 -58 -40 -20 -10 -77 -221 -33 999999 999999 999999 999999 999999 999999 999999 999999 999999 999999 999999 999999 999999 999999 999999 999999 999999 999999 999999 999999 999999 999999 999999 999999 999999 999999 999999 999999 999999 999999 999999 999999 999999 999999 999999 999999 -84 -149 -120 -105 -118 -135 -85 -116 -211 -204 -107 -127 -110 -10 999999 999999 999999 999999 999999 999999 999999 999999 -27 -203 -85 -370 -98 999999 999999 -138 -150 -209 -1173 -2627 -2954 -3027 -3283 -3332 -3397 -3450 -3488 -3541 -3544 -3429 -3367 -3082 -2616 -2173 -2555 -2805 -3093 -3181 -3172
-3145 -3082 -2486 -2761 -2701 -2374 -2213 -2017 -1554 -1505 -2040 -2258 -2167 -2450 -2588 -2464 -2548 -2572 -2813 -2856 -2815 -2755 -2788 -2361 -2034 -1934 -1613 -1101 -665 -833 -435 -310 -148 -933 -294 -281 -409 -1100 -1301 -1401 -598 -248 -370 -416 -394 -333 -188 -119 -145 -128 -104 999999 999999 999999 999999 999999 999999 999999 999999 999999 999999 999999 999999 999999 999999 999999 999999 999999 999999 999999 999999 999999 999999 999999 999999 999999 999999 999999 999999 999999 999999 999999 -176 -155 -129 -148 -95 -94 -88 -99 -104 -125 -163 -128 -100 -101 999999 999999 999999 999999 -54 -191 -250 -369 -176 -136 -110 -82 -133 -127 -96 -49 -26 -38 -25 -25 -31 -43 -41 -45 -56 -45 -33 -51 -50 -37 -32 -39 -10 -22 -61 -56 -35 -103 -100 -110 999999 999999 999999 -174 -21 -43 -79 -170 -482 -1865 -2138 -2421 -2791 -2968 -3001 -3024 -2998 -3011 -2901 -3028 -2817 -2583 -2236 -654 -183 -205 -105 -100 -99 -100 -83 -95 -99 -117 -158 -165 -194 -355 -601 -767 -1315 -698 -1176 -1424 -1799 -1662 -1661 -1621 -1568 -1448 -1244 -1817 -2138 -2138 -2222 -2215 -1664 -601 -941 -683 -2074 -2020 -2056 -696 -1135 -1604 -3814 -3804 -3802 -3798 -3786 -3770 -3741 -3725 -3698 -3659 -3606 -3513 -3389 -3317 -3018 -2747 -2607 -2462 -2129 -1843 -1457 -1086 -232 -48 -53 -126 -314 -267 -123 -270 -288 -96 -236 -175 -123 -103 999999 999999 999999 999999 999999 999999 999999 999999 999999 999999 999999 999999 999999 999999 999999 999999 999999 999999 999999 999999 999999 999999 999999 999999 999999 999999 999999 999999 999999 -34 -141 -97 -67 -86 -122 -42 999999 -103 -200 -66 -100 -120 999999 999999 999999 999999 999999 999999 999999 999999 999999 -97 -55 -115 -220 -173 999999 -147 -140 -179 -253 -1700 -2519 -2823 -3134 -3334 -3326 -3378 -3384 -3486 -3518 -3478 -3363 -3374 -2708 -2617 -2118 -1612 -2272 -2547 -3062 -3130
-2999 -3099 -3214 -2979 -2469 -2572 -2600 -2226 -1642 -1381 -1380 -1936 -2174 -2190 -2492 -2245 -2449 -2435 -2533 -2843 -2788 -2669 -2624 -2655 -2339 -1894 -1827 -1562 -811 -535 -221 -818 -238 -152 -202 -227 -286 -671 -856 -1638 -1574 -1107 -934 -788 -729 -695 -980 -994 -259 -256 -168 -28 -39 -90 999999 999999 999999 999999 999999 999999 999999 999999 999999 999999 999999 999999 999999 999999 999999 999999 999999 999999 999999 999999 999999 999999 999999 999999 999999 999999 999999 -189 -190 -117 -170 -188 -160 -71 -71 -100 -195 -87 -70 -77 -138 -120 -102 -51 -35 999999 999999 999999 -49 -244 -240 -338 -173 -257 -124 -78 -120 -101 -214 -114 -136 -143 -115 -84 -55 -73 -74 -64 -56 -58 -50 -51 -44 -96 -25 -42 -22 -36 -64 -60 -175 -131 999999 999999 999999 999999 -188 -187 -476 -1450 -2432 -2749 -2771 -2919 -3180 -3194 -3251 -3218 -3251 -3403 -3403 -3399 -3340 -3182 -2903 -1994 -1713 -833 -425 -680 -395 -150 -136 -212 -350 -331 -385 -1177 -1592 -1633 -2018 -2190 -2275 -2471 -2458 -2384 -2045 -1929 -1801 -1602 -1657 -836 -1602 -1981 -2218 -2365 -2079 -775 -594 -911 -394 -1891 -646 -2063 -2037 -1319 -761 -3856 -3751 -3782 -3799 -3785 -3778 -3763 -3746 -3726 -3700 -3653 -3616 -3569 -3480 -3355 -3155 -3036 -2877 -2658 -2340 -2029 -1582 -1010 -349 -358 -361 -438 -389 -315 -377 -581 -517 -402 -414 -400 -347 -247 999999 999999 999999 999999 999999 999999 999999 999999 999999 999999 999999 999999 999999 999999 999999 999999 999999 999999 999999 999999 999999 999999 999999 999999 999999 999999 999999 999999 999999 999999 -94 -10 -28 -10 -36 -125 999999 -75 -200 -152 -160 -34 999999 999999 999999 999999 999999 999999 999999 999999 999999 -78 -76 -138 -168 -208 -26 -187 -173 -228 -979 -2033 -2702 -2883 -3043 -3203 -3284 -3273 -3375 -3474 -3417 -3392 -3328 -3195 -2861 -2476 -2291 -1913 -1645 -2184 -2725 -2907
-2985 -3062 -3105 -3122 -3100 -3108 -2689 -2044 -1765 -1484 -1155 -1549 -1789 -1916 -2211 -2285 -2328 -2203 -2570 -2741 -2712 -2667 -2540 -2516 -2530 -2472 -2073 -1762 -1724 -1462 -1191 -1208 -563 -685 -193 -72 -190 -169 -421 -739 -1019 -1564 -1306 -1201 -1207 -1034 -1152 -1327 -977 -221 -273 -360 -298 -274 -45 -71 999999 999999 999999 999999 999999 999999 999999 999999 999999 999999 999999 999999 999999 999999 999999 999999 999999 999999 999999 999999 999999 999999 999999 -25 -160 -216 -147 -170 -192 -200 -243 -157 -148 -189 -240 -151 -192 -248 -230 -163 -192 -185 -96 -56 -32 999999 999999 999999 999999 -10 -191 -268 -359 -335 -328 -305 -288 -292 -289 -274 -145 -131 -91 -160 -98 -100 -81 -51 -17 -43 -92 -74 -84 -85 -63 -42 -50 -73 -62 999999 999999 999999 -66 -49 -152 -402 -1652 -2558 -2984 -3170 -3202 -3201 -3204 -3249 -3401 -3454 -3572 -3598 -3669 -3676 -3551 -3398 -3205 -2333 -1590 -1603 -1688 -1797 -1798 -1707 -1533 -1778 -2004 -2019 -2291 -2287 -2511 -2622 -2621 -2664 -2659 -2669 -2628 -2335 -1954 -1800 -1391 -1152 -1626 -1591 -1794 -2202 -2396 -2077 -497 -329 -480 -281 -378 -2613 -1011 -1952 -1550 -1533 -958 -3858 -3792 -3753 -3788 -3780 -3772 -3760 -3743 -3724 -3703 -3675 -3597 -3552 -3474 -3395 -3259 -3156 -3009 -2794 -2572 -2365 -1832 -1168 -331 -160 -48 -66 -134 999999 999999 -60 -218 -270 -349 -379 -325 -81 999999 999999 999999 999999 999999 999999 999999 999999 999999 999999 999999 999999 999999 999999 999999 999999 999999 999999 999999 999999 999999 999999 999999 999999 999999 999999 999999 999999 999999 999999 -31 -34 999999 999999 999999 -75 -143 -187 -264 -278 -244 -14 999999 999999 999999 999999 999999 999999 -15 -153 -223 -335 -470 -665 -658 -404 -403 -392 -378 -281 -1739 -2458 -2728 -2814 -2943 -3161 -3343 -3374 -3396 -3350 -3376 -3335 -3266 -3078 -2588 -2070 -2001 -632 -1475 -1920 -2508 -2719
-2931 -2878 -3086 -3087 -3059 -2591 -2551 -2510 -2049 -1757 -1544 -1151 -1788 -1756 -2068 -2219 -2162 -2134 -2375 -2480 -2567 -2390 -2493 -2520 -2577 -2497 -2216 -1899 -1627 -1433 -1129 -1156 -823 -401 -109 -92 -92 -490 -779 -1142 -1479 -1905 -1862 -1721 -1759 -1494 -1416 -1525 -1299 -428 -311 -234 -169 -284 -223 -87 -10 999999 999999 999999 999999 999999 999999 999999 999999 999999 999999 999999 999999 999999 999999 999999 999999 999999 999999 999999 999999 999999 999999 -241 -156 -246 -177 -177 -175 -248 -339 -346 -321 -295 -262 -247 -267 -278 -274 -288 -249 -253 -266 -192 -156 -138 -128 999999 999999 999999 999999 999999 999999 999999 999999 999999 999999 999999 999999 -18 -415 -301 -222 -195 -221 -293 -166 -103 -120 -35 -36 -52 -106 -202 -170 -106 -113 -63 999999 999999 999999 999999 -200 -193 -244 -1277 -2344 -2802 -3141 -3200 -3199 -3196 -3197 -3204 -3637 -3602 -3800 -3821 -3820 -3811 -3707 -3406 -2472 -1638 -1607 -1445 -1893 -2203 -2364 -2500 -2447 -2592 -2638 -2692 -2782 -2775 -2771 -2769 -2754 -2745 -2728 -2511 -2655 -2169 -1800 -1800 -1727 -1582 -1904 -2052 -1812 -2208 -2668 -2702 -1534 -603 -623 -559 -1516 -1556 -1971 -1339 -1188 -1798 -2414 -3791 -3791 -3791 -3776 -3773 -3766 -3759 -3738 -3719 -3702 -3684 -3643 -3587 -3414 -3397 -3234 -3140 -3036 -2874 -2700 -2411 -1082 -421 -253 -55 -16 999999 999999 999999 999999 999999 -181 -160 -101 -106 -10 -107 999999 999999 999999 999999 999999 999999 999999 999999 999999 999999 999999 999999 999999 999999 999999 999999 999999 999999 999999 999999 999999 999999 999999 999999 999999 999999 999999 999999 999999 999999 999999 999999 999999 999999 999999 -38 -10 -10 -119 -209 -190 -146 -392 -242 -184 -67 -39 -169 -291 -152 -263 -285 -242 -220 -193 -367 -421 -635 -563 -1062 -1834 -2181 -2659 -2774 -3091 -3238 -3223 -3336 -3274 -3282 -3231 -3181 -3017 -2936 -2626 -144 -146 -144 -181 -1461 -2019 -2600
-2563 -2907 -3001 -3004 -3014 -3033 -3055 -2507 -2245 -1952 -1523 -1230 -1637 -1546 -1761 -1846 -2310 -1969 -2134 -2282 -2179 -2393 -2416 -2411 -2419 -2383 -2287 -1840 -1502 -1193 -1207 -996 -720 -481 -185 -119 -451 -1078 -2306 -2480 -2585 -2180 -2286 -2223 -2288 -2020 -1976 -1961 -1365 -721 -324 -291 -284 -322 -403 -299 -191 -10 999999 999999 999999 999999 999999 999999 999999 999999 999999 999999 999999 999999 999999 999999 999999 999999 999999 999999 999999 999999 999999 -333 -254 -218 -186 -171 -237 -252 -336 -310 -339 -311 -290 -248 -288 -338 -334 -313 -285 -226 -150 -153 -177 -208 -238 -177 -135 -33 -46 999999 999999 999999 -10 -170 -44 -58 -48 -52 -508 -362 -241 -285 -334 -321 -200 -148 -96 -77 -40 -101 -200 -166 -261 -150 -104 -10 999999 999999 999999 999999 -101 -162 -391 -2182 -2892 -3159 -3199 -3201 -3201 -3204 -3209 -4000 -4000 -3622 -3771 -3992 -3942 -3941 -3886 -3751 -3486 -2071 -1132 -890 -2099 -2420 -2552 -2607 -2660 -2798 -2793 -2992 -2817 -2800 -2801 -2797 -2792 -2760 -2718 -2638 -2612 -1974 -1864 -1700 -1836 -2201 -2223 -2315 -2628 -3223 -3183 -2892 -2418 -2045 -1089 -834 -717 -2419 -2719 -1220 -1660 -1437 -3409 -3795 -3783 -3779 -3774 -3762 -3768 -3738 -3725 -3705 -3692 -3679 -3659 -3577 -3462 -3442 -3404 -3235 -2989 -2621 -2135 -1055 -345 -160 -115 -62 -10 999999 999999 999999 999999 999999 999999 999999 999999 999999 999999 999999 999999 999999 999999 999999 999999 999999 999999 999999 999999 999999 999999 -76 -79 -85 -64 -16 999999 999999 999999 999999 999999 999999 999999 999999 999999 999999 999999 999999 999999 999999 999999 999999 999999 999999 999999 999999 999999 999999 -122 -268 -66 -99 -149 -131 -173 -205 -332 -339 -190 -160 -226 -174 -139 -205 -98 -46 -528 -644 -586 -554 -2177 -2546 -2586 -2873 -2962 -2962 -3114 -3108 -3278 -3203 -3098 -2983 -2805 -757 -169 -99 -24 999999 999999 -193 -1988 -2439
-2730 -2894 -2924 -2928 -2969 -2937 -2738 -2234 -2401 -2136 -1699 -1363 -761 -1361 -1739 -1927 -1812 -1907 -1909 -1827 -2059 -2408 -2195 -2193 -2353 -2298 -2280 -1940 -1514 -1122 -880 -676 -519 -468 -464 -858 -1446 -2111 -2290 -2646 -2923 -2748 -2627 -2546 -2537 -2703 -2727 -1762 -1072 -791 -534 -395 -340 -391 -253 -269 -316 -306 -19 -10 999999 999999 999999 999999 999999 999999 999999 999999 999999 999999 999999 999999 999999 999999 999999 999999 999999 999999 999999 -288 -268 -239 -268 -221 -242 -264 -238 -251 -283 -330 -343 -296 -316 -356 -340 -331 -242 -292 -186 -180 -180 -143 -183 -130 -109 -103 -68 -104 -137 -183 -192 -182 -89 -101 -142 -286 -349 -437 -430 -431 -463 -393 -341 -197 -162 -127 -29 -47 -62 -194 -297 -249 -189 -146 -108 999999 999999 999999 -198 -252 -1462 -2358 -2809 -3201 -3201 -3262 -3327 -3385 -3424 -3282 -3075 -3643 -3792 -4021 -4019 -4012 -3994 -3920 -3725 -2907 -1909 -1484 -2195 -2552 -2632 -2759 -2732 -2764 -2806 -2810 -2814 -2803 -2801 -2801 -2777 -2762 -2733 -2627 -2600 -2098 -2046 -2064 -2314 -2890 -3250 -3275 -3302 -3279 -3255 -3256 -3076 -3414 -3403 -3288 -3010 -3530 -3825 -3818 -3576 -3792 -3795 -3781 -3780 -3775 -3763 -3732 -3746 -3725 -3685 -3668 -3641 -3607 -3652 -3548 -3468 -3442 -3118 -2987 -2482 -1570 -389 -357 -361 -213 -38 -10 999999 999999 999999 999999 999999 999999 999999 999999 999999 999999 999999 999999 999999 999999 999999 999999 999999 999999 999999 999999 999999 999999 999999 -41 -41 -37 -10 -27 -10 999999 999999 999999 999999 999999 999999 999999 999999 999999 999999 999999 999999 999999 999999 999999 999999 999999 -94 -195 -276 -298 -250 -229 -100 -309 -249 -241 -303 -281 -273 -226 -67 -12 999999 999999 999999 -34 -207 -304 -524 -501 -593 -544 -1911 -2434 -2628 -2779 -2811 -2884 -3050 -3057 -3107 -3008 -2956 -2783 -41 -115 -52 -11 999999 999999 999999 -184 -1699 -2256
-2482 -2750 -2774 -2880 -2891 -2859 -2732 -2641 -2436 -2210 -1736 -1560 -1620 -816 -1477 -1530 -1543 -1751 -1801 -1725 -1893 -1871 -1645 -1917 -2086 -2075 -2103 -1852 -1436 -926 -692 -504 -454 -482 -533 -843 -1463 -2160 -2992 -3136 -3011 -2961 -2844 -2759 -2749 -2683 -2726 -2625 -1414 -1056 -764 -449 -341 -351 -289 -273 -409 -239 -230 -235 -315 -12 999999 999999 999999 999999 999999 999999 999999 999999 999999 999999 999999 999999 999999 999999 999999 999999 -244 -338 -265 -311 -289 -262 -269 -245 -226 -195 -236 -238 -288 -294 -302 -314 -289 -309 -283 -272 -241 -255 -250 -254 -241 -171 -139 -111 -101 -104 -175 -193 -190 -262 -308 -305 -332 -348 -345 -361 -364 -392 -460 -483 -433 -303 -44 -111 -109 -86 -96 -198 -330 -348 -323 -231 -90 -10 -50 -191 -645 -1349 -2332 -2848 -3097 -3201 -3298 -3600 -3530 -3440 -3412 -3611 -3568 -3662 -3827 -4082 -4105 -4107 -4065 -4019 -3932 -3234 -1779 -1746 -2118 -2394 -2611 -2684 -2754 -2612 -2808 -2816 -2820 -2828 -2844 -2786 -2767 -2725 -2604 -2477 -2390 -2246 -2123 -2642 -2807 -2767 -3241 -3280 -3262 -3270 -3228 -2883 -3226 -3337 -3306 -3736 -3615 -3827 -3836 -3843 -3808 -3790 -3783 -3776 -3772 -3769 -3767 -3753 -3738 -3709 -3672 -3649 -3648 -3638 -3596 -3450 -3249 -3044 -2811 -2301 -1435 -430 -373 -400 -395 -396 -233 999999 999999 999999 999999 999999 999999 999999 999999 999999 999999 999999 999999 999999 999999 999999 999999 999999 999999 999999 999999 999999 999999 999999 999999 999999 -32 -11 -10 -19 -10 999999 999999 999999 999999 999999 999999 999999 999999 999999 999999 999999 999999 999999 -30 -20 -184 -309 -192 -281 -380 -234 -213 -107 999999 -16 -171 -217 -239 -229 -138 999999 999999 999999 999999 -101 -59 -325 -124 -130 -323 -448 -446 -1008 -1994 -2327 -2672 -2725 -2773 -2832 -2891 -2971 -3003 -2945 -2806 -196 -91 999999 999999 999999 999999 999999 999999 -220 -1494 -2175
-2405 -2616 -2730 -2777 -2825 -2966 -2644 -2470 -2367 -2139 -2188 -1742 -1388 -1271 -767 -1345 -1401 -1551 -1662 -1594 -1520 -1649 -1674 -1685 -1644 -1841 -1986 -1983 -1618 -881 -440 -417 -423 -529 -683 -992 -2048 -2796 -3243 -3313 -3176 -3182 -3008 -3001 -2882 -2867 -2871 -2220 -1442 -1387 -1143 -860 -702 -553 -597 -402 -266 -181 -155 -118 -49 -13 -50 999999 999999 999999 999999 999999 999999 999999 999999 999999 999999 999999 999999 -12 -205 -250 -382 -329 -298 -331 -288 -275 -293 -201 -216 -235 -260 -227 -218 -219 -221 -193 -194 -243 -304 -296 -297 -292 -264 -192 -231 -252 -333 -335 -297 -249 -199 -195 -218 -260 -300 -304 -306 -286 -290 -286 -398 -495 -521 -525 -535 -531 -337 -57 -42 -49 -151 -100 -224 -332 -364 -393 -288 -99 -505 -1140 -1889 -2527 -3046 -3201 -3200 -3212 -3535 -3598 -3598 -3519 -3275 -3730 -3566 -3812 -3620 -4206 -4197 -4170 -4145 -4126 -4041 -3009 -2332 -1448 -1435 -2275 -2480 -2534 -2744 -1705 -2133 -2622 -2854 -2920 -2842 -2808 -2733 -2738 -2535 -2403 -2222 -2067 -2672 -3025 -3098 -3182 -3273 -3224 -3166 -3354 -3375 -3036 -3507 -3620 -3591 -3821 -3820 -3877 -3835 -3783 -3770 -3773 -3778 -3770 -3765 -3759 -3756 -3746 -3711 -3649 -3638 -3621 -3542 -3486 -3441 -3398 -3258 -2931 -2381 -1817 -906 -385 -372 -400 -441 -497 -468 -391 -455 -325 999999 999999 999999 999999 999999 999999 999999 999999 999999 999999 999999 999999 999999 999999 999999 999999 999999 999999 999999 999999 999999 999999 -25 -75 -10 999999 999999 999999 999999 999999 999999 999999 999999 999999 999999 999999 999999 999999 999999 999999 -116 -10 -10 -283 -193 -200 -156 -88 -71 999999 999999 999999 -24 -64 -64 999999 999999 999999 999999 999999 999999 -139 -104 -10 -26 -47 -214 -312 -437 -1002 -1635 -2221 -2519 -2602 -2668 -2722 -2850 -2897 -2951 -2855 -1506 -110 999999 999999 999999 999999 999999 999999 999999 -197 -1381 -1808
-2244 -2291 -2580 -2670 -2797 -2894 -2932 -3033 -2682 -2550 -2215 -2090 -1646 -1518 -1486 -728 -1191 -1280 -1283 -1482 -1355 -1314 -1525 -1381 -1018 -1379 -1438 -1515 -1432 -1104 -505 -377 -377 -519 -803 -1858 -1839 -2264 -3167 -2989 -3300 -3026 -3133 -3137 -3127 -3004 -2954 -2372 -1578 -1448 -1294 -1149 -1279 -1355 -1579 -1604 -1246 -255 -203 -166 -149 -131 -89 -111 -63 -358 -61 -156 999999 -10 -165 -172 -131 -42 -224 -217 -284 -318 -289 -238 -273 -282 -289 -260 -232 -288 -279 -264 -256 -246 -240 -158 -144 -160 -192 -190 -333 -301 -295 -199 -241 -206 -193 -242 -319 -320 -344 -324 -249 -209 -191 -181 -169 -195 -192 -199 -212 -205 -189 -333 -480 -468 -455 -569 -581 -539 -387 -48 -43 -189 -183 -347 -375 -397 -496 -1205 -1781 -2454 -2950 -3216 -3208 -3201 -3199 -3342 -3574 -3591 -3601 -3423 -3842 -4203 -3534 -2877 -4219 -4227 -4224 -4219 -4202 -4186 -4126 -3978 -3216 -2798 -1487 -1183 -2157 -2578 -2050 -3215 -3379 -3402 -3274 -3209 -3160 -3203 -2993 -2678 -2656 -2685 -2277 -2510 -2797 -2990 -3374 -3315 -3478 -3740 -3813 -3805 -3807 -3820 -3819 -3806 -3807 -3788 -3777 -3772 -3768 -3766 -3766 -3768 -3762 -3759 -3759 -3753 -3667 -3642 -3626 -3625 -3621 -3603 -3488 -3440 -3410 -3330 -3185 -3024 -2588 -1872 -785 -304 -313 -378 -403 -440 -444 -399 -362 -397 -468 -348 -477 -444 -325 -119 -217 -257 -120 999999 999999 999999 999999 999999 999999 999999 999999 -46 -60 -35 -35 -11 -158 -142 -18 -24 999999 999999 999999 999999 999999 999999 999999 999999 999999 999999 999999 999999 999999 999999 999999 999999 999999 -86 -107 -126 -100 -77 -41 -18 999999 999999 999999 999999 999999 999999 999999 999999 999999 999999 999999 999999 999999 999999 -13 -174 -214 -245 -745 -1137 -1106 -2071 -2419 -2585 -2505 -2592 -2764 -2846 -2795 -2614 -118 -36 999999 999999 999999 999999 999999 999999 999999 -55 -303 -1820
-1782 -2157 -2582 -2660 -2762 -2801 -2852 -2750 -2538 -2279 -2256 -2042 -1834 -1545 -1246 -964 -692 -906 -1257 -1083 -1041 -916 -718 -1095 -115 -112 -95 -229 -174 -290 -674 -431 -332 -462 -550 -2044 -2606 -1813 -2743 -3805 -3782 -2873 -3326 -3296 -3394 -3221 -3164 -3222 -1697 -1396 -1368 -1362 -1423 -1457 -1279 -1868 -2296 -2392 -2099 -1401 -2577 -2476 -2594 -2299 -2313 -1816 -785 -120 -123 -128 -199 -196 -189 -281 -413 -310 -290 -265 -254 -273 -299 -328 -288 -291 -363 -335 -302 -318 -291 -266 -269 -192 -193 -191 -210 -288 -308 -300 -289 -226 -220 -263 -225 -241 -255 -305 -284 -204 -236 -241 -260 -246 -206 -233 -211 -306 -197 -255 -285 -210 -204 -192 -470 -538 -560 -566 -578 -555 -555 -431 -598 -925 -1612 -1553 -1993 -2459 -2594 -3005 -3196 -3230 -3584 -3402 -3571 -3643 -3728 -3650 -3560 -3950 -4001 -3784 -3838 -3092 -4266 -4251 -4265 -4251 -4234 -4215 -4200 -3744 -3591 -3188 -2565 -1399 -1869 -2005 -2765 -3379 -3306 -3219 -3330 -3264 -3245 -2707 -2816 -2659 -2723 -2195 -2483 -2704 -1587 -2885 -3171 -3382 -3535 -3752 -3763 -3761 -3794 -3754 -3753 -3722 -3651 -3653 -3716 -3715 -3764 -3758 -3760 -3751 -3743 -3740 -3729 -3662 -3629 -3621 -3618 -3617 -3606 -3498 -3461 -3402 -3326 -3114 -2796 -2668 -1913 -764 -457 -282 -109 999999 999999 -21 -271 -328 -360 -423 -410 -429 -453 -492 -484 -479 -152 -207 -281 -272 -257 999999 999999 999999 -36 -68 -140 -168 -171 -133 -76 -145 -170 -126 -72 -43 999999 999999 999999 999999 999999 999999 999999 999999 999999 999999 -97 -40 999999 999999 999999 999999 999999 -71 -100 -100 -93 -68 -41 -19 -10 -11 999999 999999 999999 999999 999999 999999 999999 999999 999999 999999 999999 999999 -10 -194 -265 -242 -427 -1179 -1043 -1642 -2206 -2462 -2435 -2476 -2519 -2621 -2651 -1100 -65 999999 999999 999999 999999 999999 999999 999999 999999 999999 -277 -1535
-1662 -2127 -2368 -2331 -2620 -2800 -2805 -2898 -2722 -2356 -2212 -1951 -1901 -1352 -1409 -1236 -1059 -367 -511 -260 -191 -115 -59 999999 999999 999999 999999 -103 -99 -147 -140 -213 -416 -417 -747 -842 -1125 -1685 -2417 -2882 -2926 -3085 -3242 -3418 -3505 -3368 -3349 -3310 -1921 -1386 -1273 -1236 -1257 -1356 -1596 -2140 -2681 -2894 -2995 -2998 -2957 -2916 -2846 -2723 -2588 -2454 -2148 -1654 -528 -198 -197 -213 -241 -316 -366 -334 -289 -288 -336 -342 -415 -400 -382 -386 -359 -333 -279 -186 -176 -181 -183 -158 -165 -171 -208 -231 -229 -208 -208 -195 -233 -232 -288 -266 -233 -291 -288 -247 -250 -302 -285 -267 -174 -245 -252 -178 -205 -10 -43 999999 -129 -27 -100 -259 -435 -561 -600 -639 -697 -756 -1039 -1601 -2169 -2533 -2790 -3000 -3199 -3210 -3349 -3607 -3618 -3625 -3733 -3700 -3649 -3825 -4097 -3834 -3801 -3916 -4201 -4303 -4344 -4289 -4287 -4270 -4242 -4263 -4208 -3768 -3156 -2221 -1496 -735 -1420 -2488 -3321 -3631 -3529 -3395 -3262 -3215 -2992 -2659 -2246 -2180 -1828 -2137 -2009 -2454 -2128 -3052 -3100 -2773 -2788 -3391 -2940 -3736 -3661 -3623 -3387 -3204 -3204 -3280 -3604 -3717 -3750 -3740 -3734 -3727 -3723 -3718 -3709 -3680 -3638 -3625 -3614 -3610 -3548 -3474 -3393 -3265 -2993 -2829 -2306 -2073 -1296 -532 -336 -222 -133 999999 999999 -12 -163 -43 -10 999999 999999 -155 -126 999999 999999 -449 -509 -180 -123 -130 -55 999999 999999 -93 -201 -268 -228 -148 -123 -99 -89 -160 -107 -77 -31 999999 999999 999999 999999 999999 999999 999999 999999 999999 999999 -52 -28 -37 999999 999999 999999 999999 999999 -17 -100 -93 -80 -56 -37 -24 -15 -14 999999 999999 999999 999999 999999 999999 999999 999999 999999 999999 999999 -95 -145 -314 -195 -212 -427 -898 -850 -1490 -2054 -2152 -2275 -1875 -1598 -2308 -1605 -136 999999 999999 999999 999999 999999 999999 999999 999999 999999 999999 -410 -419
-1975 -2108 -2141 -2261 -2601 -2690 -2734 -2771 -3118 -2415 -2035 -2079 -1633 -1798 -1269 -1192 -308 -238 -174 -189 -134 -60 999999 999999 999999 999999 999999 999999 999999 999999 -76 -156 -254 -618 -699 -836 -819 -1231 -2175 -2974 -3448 -3013 -3387 -3673 -3291 -3541 -3643 -3653 -3049 -1838 -1537 -1333 -1581 -2019 -2296 -2859 -3049 -3082 -3052 -3001 -2951 -2903 -2814 -2733 -2627 -2501 -2280 -2064 -1380 -315 -273 -268 -288 -320 -337 -366 -385 -392 -336 -390 -417 -436 -461 -399 -401 -390 -376 -362 -345 -330 -290 -235 -239 -289 -281 -255 -192 -176 -192 -193 -203 -233 -234 -235 -266 -244 -255 -241 -236 -255 -344 -268 -68 -149 -124 -32 -24 -82 999999 -287 -44 -197 -131 -39 -238 -387 -572 -913 -1229 -1446 -1974 -2268 -2796 -3008 -3200 -3198 -3305 -3422 -3590 -3612 -3646 -3662 -3663 -3518 -3731 -4355 -3327 -3908 -3910 -4323 -4255 -4141 -4306 -4299 -4292 -4277 -4261 -4229 -4040 -3610 -2919 -1029 -804 -1253 -1411 -989 -2017 -3821 -3385 -2927 -2451 -2795 -2767 -2600 -2452 -1824 -1977 -2031 -1986 -2186 -2240 -2046 -2375 -2402 -2135 -2871 -2989 -2968 -2831 -3194 -2805 -2521 -2785 -3167 -2972 -2807 -3293 -3671 -3682 -3708 -3707 -3704 -3691 -3645 -3630 -3610 -3548 -3533 -3485 -3418 -3388 -3166 -3005 -2616 -2260 -1254 -509 -341 -248 -219 -146 999999 999999 999999 -111 -51 999999 999999 999999 999999 999999 999999 999999 -171 -315 -489 -531 -176 -60 999999 -125 -314 -87 -10 999999 999999 999999 999999 999999 -84 -153 -43 999999 999999 999999 999999 999999 -151 -110 -120 -46 -71 -70 -113 -207 -194 999999 999999 999999 999999 -51 -101 -97 -75 -60 -40 -33 -23 -16 -10 999999 999999 999999 999999 999999 999999 999999 999999 999999 -48 -19 -262 -241 -230 -200 -256 -340 -598 -975 -1280 -1597 -1210 -1247 -1153 -1176 -1168 -96 -19 999999 999999 999999 999999 999999 999999 999999 999999 999999 999999 -167 -578
-1458 -1778 -1951 -1990 -2399 -2515 -2639 -2755 -2818 -2964 -2684 -2212 -1880 -1486 -1385 -804 -351 -337 -157 -105 -33 999999 999999 999999 999999 999999 999999 999999 999999 999999 999999 -176 -182 -210 -1077 -931 -783 -1477 -1930 -2591 -3182 -3444 -3216 -3634 -3324 -3667 -3297 -3687 -3426 -3026 -2734 -2849 -3016 -3123 -3219 -3187 -3170 -3149 -3130 -2943 -2866 -2815 -2756 -2717 -2512 -2291 -2046 -1711 -1264 -661 -338 -291 -364 -358 -395 -423 -451 -441 -438 -450 -445 -439 -401 -368 -364 -340 -318 -331 -333 -355 -315 -312 -284 -234 -180 -138 -137 -150 -201 -243 -249 -228 -240 -231 -297 -330 -291 -212 -101 -191 -307 -336 -258 -105 -116 -48 -338 -266 -205 -407 -300 -311 -207 -284 -297 -331 -823 -2196 -2512 -2587 -2849 -2858 -3200 -3202 -3201 -3363 -3530 -3627 -3659 -3680 -3695 -3683 -3623 -4014 -3968 -3043 -3870 -4265 -4284 -4201 -4329 -4344 -4342 -4319 -4305 -4284 -4254 -4078 -3359 -2914 -1251 -1347 -1236 -1267 -2579 -3279 -3894 -3886 -3855 -3879 -3248 -3561 -2799 -2262 -2574 -1858 -1993 -1858 -1802 -2097 -1829 -2060 -2119 -2408 -2197 -2208 -2710 -2796 -2950 -2784 -2824 -2743 -2675 -3002 -2863 -3592 -3526 -3667 -3669 -3639 -3656 -3662 -3658 -3634 -3560 -3503 -3523 -2445 -3149 -2361 -2635 -2444 -3039 -2519 -2263 -1041 -479 -396 -314 -282 -187 -10 999999 -104 -33 -47 -218 -47 -244 999999 999999 999999 999999 999999 -75 -144 -344 -445 -454 -319 -228 -148 -96 999999 999999 999999 999999 999999 999999 999999 999999 999999 999999 999999 -12 -127 -195 -200 -185 -42 -106 -112 -167 -238 -300 999999 999999 999999 999999 -16 -58 -68 -61 -43 -33 -13 -19 -19 -17 -16 999999 999999 999999 999999 999999 999999 999999 999999 -10 -531 -836 -435 -386 -290 -309 -336 -360 -524 -868 -956 -779 -969 -1213 -1122 -1461 -65 -31 999999 999999 999999 999999 999999 999999 999999 999999 999999 999999 999999 999999 -236
-441 -392 -305 -1739 -1770 -2252 -2389 -2593 -2697 -2707 -2670 -2333 -1780 -1429 -1197 -503 -343 -191 -222 -164 -44 999999 999999 999999 999999 999999 999999 999999 999999 999999 999999 -203 -207 -251 -1010 -1323 -1416 -1507 -1701 -2100 -2755 -3360 -3599 -3735 -3709 -3630 -3511 -3649 -2728 -2807 -2774 -3077 -3245 -3246 -3223 -3221 -3210 -3169 -3107 -3053 -2898 -2760 -2697 -2606 -2459 -2291 -2074 -1786 -1551 -1153 -793 -385 -394 -415 -425 -452 -472 -472 -444 -310 -214 -172 -182 -167 -185 -175 -190 -237 -215 -228 -269 -281 -272 -235 -191 -160 -166 -185 -145 -172 -147 -110 -157 -144 -163 -194 -261 -304 -325 -338 -326 -322 -385 -106 -24 -191 -194 -267 -336 -283 -174 -196 -221 -268 -306 -342 -2241 -3276 -3255 -3279 -3386 -3201 -3333 -3534 -3608 -3662 -3682 -3693 -3719 -3731 -3784 -3806 -3849 -4013 -4028 -3730 -4328 -4277 -4318 -4262 -4259 -4295 -4319 -4317 -4303 -4280 -4035 -3366 -2571 -2457 -2264 -988 -2003 -3449 -3884 -3934 -3919 -3925 -3918 -3925 -3885 -3904 -3871 -3869 -3683 -3020 -2868 -2585 -2753 -2536 -1795 -2043 -2307 -2340 -2075 -1789 -2559 -2462 -2206 -2453 -2734 -2862 -2939 -3029 -3194 -3471 -3429 -3616 -3627 -3614 -3615 -3608 -3596 -3596 -3567 -3480 -2974 -2853 -2809 -3044 -2520 -2555 -2594 -2347 -2217 -1831 -542 -538 -543 -209 -149 -36 -103 -293 -389 -423 -468 -173 -78 999999 999999 999999 999999 999999 -76 -209 -132 -177 -193 -229 -221 -39 -15 999999 999999 999999 999999 999999 999999 999999 999999 -31 -49 -178 -256 -208 -159 -134 -81 -83 -82 -33 -290 -131 999999 999999 999999 999999 999999 -18 -69 -31 -10 -24 -10 999999 999999 -14 -17 -15 999999 999999 999999 999999 999999 999999 999999 999999 -541 -32 -30 999999 -11 -198 -263 -311 -322 -481 -706 -808 -709 -1045 -1015 -790 -198 -88 -10 999999 999999 999999 999999 999999 999999 999999 999999 999999 999999 999999 999999 -174
-237 -263 -345 -374 -1209 -1935 -2123 -2365 -2499 -2650 -2613 -2152 -1669 -1438 -882 -321 -313 -168 -225 -42 999999 999999 999999 999999 999999 999999 999999 999999 999999 999999 -87 -112 -145 -960 -1317 -1441 -1494 -1611 -1610 -1772 -2382 -3024 -3498 -3676 -3742 -3482 -3383 -3697 -3391 -2205 -2971 -3151 -3240 -3242 -3225 -3224 -3224 -3220 -3145 -3047 -2950 -2805 -2683 -2568 -2409 -2226 -2020 -1763 -1546 -1218 -816 -532 -472 -472 -435 -280 -190 -90 -61 -151 -79 -98 -66 -89 -91 -108 -104 -99 -122 -146 -115 -145 -208 -194 -192 -214 -180 -144 -170 -148 -177 -266 -261 -264 -280 -290 -277 -283 -300 -299 -295 -356 -412 -470 -428 -207 -160 -167 -169 -171 -333 -409 -409 -964 -2529 -3250 -3573 -3601 -3604 -3603 -3696 -3698 -3695 -3787 -3792 -3800 -3803 -3802 -3799 -3793 -3797 -3462 -4016 -3418 -3757 -3817 -4334 -4355 -4351 -4327 -4322 -4311 -4301 -4284 -4341 -4262 -3172 -3037 -2999 -1288 -1110 -2084 -3788 -3945 -3928 -3903 -3897 -3896 -3894 -3871 -3656 -3889 -3872 -3798 -3841 -3801 -3541 -3402 -2805 -2827 -2446 -2327 -2201 -2148 -2020 -2203 -2061 -2242 -2223 -2451 -2371 -2511 -2853 -3018 -3385 -3467 -3493 -3534 -3587 -3572 -3496 -3469 -3434 -3397 -3393 -3339 -3227 -3203 -2865 -3261 -2395 -2269 -1973 -1857 -2238 -1391 -442 -380 -332 -227 -100 -159 -75 999999 999999 -328 -455 -369 -215 -374 -289 -147 -147 999999 -147 -46 -105 -115 -150 -111 -167 -76 -73 -33 -12 -89 999999 999999 999999 999999 999999 -137 -247 -341 -276 -116 999999 999999 999999 999999 999999 999999 999999 999999 999999 999999 -10 -10 -10 -29 -42 -10 -15 -60 -10 999999 999999 -16 -16 -15 999999 999999 999999 999999 999999 999999 999999 999999 999999 999999 999999 999999 -30 -179 -264 -360 -419 -466 -669 -772 -809 -896 -268 -138 -315 -116 999999 999999 999999 999999 999999 999999 999999 999999 999999 999999 999999 999999 999999 -835
-297 -439 -617 -473 -98 -325 -1655 -1769 -2019 -2369 -2511 -2324 -2294 -1238 -1062 -377 -170 -157 -127 -86 999999 999999 999999 999999 999999 999999 999999 999999 999999 999999 -57 -117 -160 -1093 -1459 -1537 -1563 -1562 -1674 -1627 -2042 -2498 -2839 -3430 -3560 -3643 -3525 -3676 -2984 -2872 -3166 -3255 -3216 -3247 -3238 -3227 -3222 -3178 -3145 -3093 -3056 -2904 -2833 -2700 -2534 -2337 -2137 -1938 -1758 -1600 -1287 -1170 -864 -845 -468 -377 -246 -154 -121 -164 -43 -34 -36 -45 -48 -63 -55 -53 -42 -36 -63 -116 -180 -180 -158 -239 -316 -306 -276 -275 -217 -198 -135 -294 -313 -294 -114 -31 -101 -151 -199 -187 -376 -498 -438 -465 -381 -192 -664 -1318 -1956 -2373 -2602 -3006 -3572 -3710 -3812 -3828 -3833 -3828 -3830 -3824 -3823 -3833 -3849 -3850 -3868 -3634 -3826 -3814 -3606 -3402 -3273 -3395 -3102 -3648 -3877 -4290 -4393 -4359 -4330 -4317 -4260 -4374 -4368 -4328 -4318 -3743 -2683 -1159 -2507 -2625 -2430 -3744 -3863 -3914 -3851 -3418 -3893 -3425 -3014 -2994 -3007 -3119 -3637 -3616 -3415 -2794 -2530 -2390 -2501 -2436 -2150 -2011 -1888 -1876 -2004 -2056 -2519 -2696 -2726 -3195 -3292 -3377 -3404 -3397 -3410 -2172 -3456 -3275 -3292 -3258 -3218 -3164 -3109 -3054 -2885 -2853 -2795 -2915 -2226 -1891 -1569 -1194 -773 -576 -562 -544 -389 -239 -10 999999 -164 -134 -389 -482 -427 -420 -278 -212 -81 -13 -10 999999 999999 999999 999999 999999 999999 -10 -115 -89 -144 -217 -213 -125 999999 999999 999999 999999 999999 -251 -383 -277 -12 999999 999999 999999 999999 999999 999999 999999 999999 999999 999999 999999 -59 -94 -44 -52 -42 -14 -51 -25 -18 -15 999999 -11 -14 999999 999999 999999 999999 999999 999999 999999 999999 999999 999999 999999 999999 999999 999999 -168 -330 -462 -477 -469 -598 -624 -767 -728 -204 -88 -379 999999 999999 999999 999999 999999 999999 999999 999999 999999 999999 999999 999999 999999 999999 -180
-218 -500 -584 -501 -608 -284 -1045 -1183 -1622 -2038 -2110 -2107 -1741 -1533 -980 -380 -181 -110 -70 -10 999999 999999 999999 -124 -13 -89 -53 -134 -195 -88 -201 -178 -550 -1619 -1641 -1574 -1698 -1560 -1144 -1407 -1518 -1755 -2378 -3192 -3404 -3508 -3647 -3431 -3463 -3316 -2758 -3241 -3196 -3200 -2994 -3100 -3195 -3147 -3136 -3070 -3011 -2914 -2789 -2660 -2567 -2435 -2279 -2117 -2076 -1960 -1804 -1799 -1688 -1739 -1844 -1901 -1244 -357 -177 -184 -99 -113 -78 -76 -161 -237 -221 -143 -117 -103 -76 -48 -71 -165 -133 -266 -213 -95 -118 -10 -184 -240 -152 -72 -97 -31 -35 -45 -102 -192 -186 -224 -381 -364 -396 -368 -1218 -1424 -1966 -2437 -2785 -3242 -3600 -3700 -3804 -3843 -3885 -3895 -3892 -3893 -3892 -3894 -3891 -3888 -3850 -3850 -3874 -3878 -3876 -3767 -3354 -2358 -3295 -3459 -3379 -3008 -3067 -3536 -4317 -4288 -4324 -4318 -4312 -4303 -4294 -4276 -4236 -4251 -4232 -4093 -3971 -2175 -2641 -2387 -999 -3922 -3873 -4000 -3511 -3665 -3269 -2673 -2722 -3098 -3138 -3082 -1832 -2370 -2596 -2439 -1929 -1870 -1404 -1503 -1677 -1703 -1807 -2320 -2284 -2631 -2596 -2511 -3211 -3024 -2845 -3042 -3218 -3201 -3288 -3316 -3306 -3257 -3226 -3235 -2486 -2633 -2800 -2726 -2562 -2441 -2091 -1798 -1340 -775 -572 -548 -539 -549 -504 -447 -478 -421 -400 -382 -374 -334 -223 -81 -248 -309 -280 -348 -29 -22 999999 999999 999999 999999 999999 -10 -163 -70 -10 -131 -182 -43 -43 999999 999999 999999 -247 -384 -309 999999 999999 999999 999999 999999 999999 999999 999999 999999 999999 999999 999999 999999 999999 999999 999999 -130 -26 -17 -10 -41 -20 -10 999999 999999 999999 999999 999999 999999 999999 999999 999999 999999 999999 999999 999999 999999 999999 999999 999999 -156 -402 -605 -590 -500 -621 -656 -683 -116 -100 -95 -18 999999 999999 999999 999999 999999 999999 999999 999999 999999 999999 999999 999999 999999 999999 -194
-23 -257 -604 -200 -216 -243 -270 -268 -755 -1197 -1082 -657 -818 -1062 -888 -640 -370 -138 -140 -66 -21 -103 -10 -103 -163 -194 -375 -291 -223 -304 -279 -325 -913 -1630 -1760 -1832 -1852 -1724 -1736 -1828 -1953 -2006 -2191 -2611 -3064 -3223 -3302 -3501 -3408 -2950 -3094 -3237 -3240 -3080 -3122 -3072 -2757 -3129 -3091 -3047 -2921 -2926 -2700 -2668 -2558 -2459 -2432 -2362 -2356 -2296 -2284 -2187 -2211 -2196 -2273 -2144 -1979 -1369 -378 -320 -349 -295 -288 -266 -195 -158 -126 -115 -93 -31 999999 999999 999999 -18 -33 -76 -132 -148 -184 -189 -172 -178 -111 -114 -32 -266 -161 -446 -142 -133 -178 -237 -468 -767 -1887 -2226 -2673 -2932 -3192 -3382 -3563 -3627 -3795 -3815 -3844 -3883 -3931 -3908 -3902 -3910 -3915 -3999 -3995 -3905 -3876 -3865 -3840 -3530 -3195 -3949 -3767 -4758 -3716 -3771 -3383 -3483 -3976 -4165 -4295 -4231 -4305 -4302 -4302 -4304 -4292 -4289 -4327 -4241 -4216 -4196 -4240 -4204 -4169 -3125 -1813 -1734 -3903 -3906 -3856 -3716 -3628 -3393 -3174 -3153 -2982 -2655 -2621 -2034 -2284 -2084 -1950 -2115 -2193 -1638 -1641 -1503 -1636 -1178 -1949 -2177 -2263 -2338 -2559 -2739 -2636 -2636 -2799 -2922 -3029 -3212 -3216 -3203 -3185 -3154 -3056 -2951 -2797 -2631 -2412 -2233 -1923 -1286 -674 -533 -481 -486 -459 -418 -401 -369 -292 -147 -100 -209 999999 999999 -51 -402 -28 -281 -211 -96 -389 -225 -14 999999 999999 -87 -41 -25 -10 999999 999999 -69 -15 -180 -267 -231 -131 -291 -404 -393 -230 999999 999999 999999 999999 999999 999999 999999 999999 999999 999999 999999 999999 999999 999999 999999 999999 999999 999999 999999 999999 999999 999999 999999 999999 999999 999999 999999 999999 999999 999999 999999 999999 999999 999999 999999 999999 999999 -19 -10 -18 -229 -516 -748 -624 -609 -641 -470 -154 -103 -73 -28 999999 999999 999999 999999 999999 999999 999999 999999 999999 999999 999999 999999 999999 999999 999999 999999
999999 -13 -195 -439 -152 -289 -340 -244 -247 -300 -303 -429 -396 -377 -449 -495 -640 -445 -158 -98 -112 -62 -62 -125 -182 -321 -441 -340 -479 -833 -850 -930 -1029 -1232 -1627 -1811 -1942 -2070 -2124 -2094 -1568 -996 -966 -2267 -2505 -2813 -3059 -2988 -3112 -2434 -3024 -3135 -3048 -2905 -2582 -2941 -2909 -2961 -2244 -2366 -1971 -2229 -2193 -1969 -2165 -2716 -1999 -2935 -2278 -3220 -2597 -2434 -2443 -2463 -2415 -2348 -2083 -1690 -1259 -714 -317 -333 -277 -54 999999 999999 999999 -100 -53 -104 999999 999999 999999 999999 999999 -34 -105 -83 999999 999999 999999 999999 999999 999999 -74 -171 -188 -96 -245 -456 -737 -1972 -2731 -3395 -3521 -3497 -3589 -3647 -3647 -3800 -3834 -3899 -3906 -3911 -3907 -3910 -3910 -3896 -3853 -3828 -3851 -3811 -3909 -3780 -3785 -3513 -3486 -3065 -4109 -3180 -3142 -3621 -3612 -4385 -4203 -4258 -4322 -4324 -4283 -4273 -4305 -4308 -4302 -4298 -4282 -4259 -4204 -4152 -4146 -4156 -4139 -4107 -3475 -2446 -1168 -1185 -2244 -3750 -3685 -2811 -3217 -3339 -3154 -2919 -3290 -1908 -1176 -2429 -2372 -2082 -1659 -1409 -1181 -1693 -2394 -1327 -1267 -1189 -1340 -1575 -1962 -1451 -1637 -1923 -2157 -2302 -2503 -2845 -2940 -3009 -3020 -3015 -3027 -2986 -2942 -2791 -2501 -2400 -2266 -1589 -1129 -784 -615 -592 -496 -433 -402 -395 -372 -423 -420 -46 -45 999999 999999 999999 999999 999999 999999 -115 -285 -183 -206 -187 -27 999999 999999 -39 -51 -56 -270 999999 999999 999999 999999 -84 -12 -273 -256 -312 -409 -231 -88 999999 999999 999999 999999 999999 999999 999999 999999 999999 999999 999999 999999 999999 999999 999999 999999 999999 999999 999999 999999 999999 999999 999999 999999 999999 999999 999999 999999 999999 999999 999999 -10 -10 -10 -10 -10 -489 -55 -307 -298 -654 -972 -1073 -714 -579 -604 -176 -200 -78 -50 999999 999999 999999 999999 999999 999999 999999 999999 999999 999999 999999 999999 999999 999999 999999 999999 999999
999999 999999 999999 999999 999999 -158 -301 -302 -300 -292 -285 -455 -398 -302 -313 -370 -442 -619 -745 -579 -211 -226 -217 -224 -291 -289 -394 -407 -828 -1069 -1050 -1231 -1356 -1317 -1346 -1816 -1844 -1800 -1823 -1927 -2183 -2131 -1654 -880 -1598 -2027 -2730 -2711 -1680 -2763 -1777 -2421 -2348 -2546 -1972 -2012 -2073 -2634 -2948 -2814 -2025 -2014 -2468 -2477 -2538 -2597 -2917 -2501 -2734 -1664 -2408 -2512 -2770 -2698 -2573 -2439 -2368 -2203 -2032 -1984 -1748 -1630 -1174 -116 -86 999999 999999 999999 999999 999999 999999 999999 999999 999999 999999 999999 999999 999999 999999 999999 999999 999999 999999 -186 -187 -145 -157 -142 -190 -388 -1078 -3115 -3515 -3778 -3838 -3907 -3931 -3971 -3995 -3998 -4000 -4000 -4000 -4000 -3998 -3995 -3998 -3937 -3951 -3933 -3841 -3835 -3609 -3404 -3486 -3187 -4546 -2964 -3057 -3352 -4004 -3354 -3999 -4284 -4163 -4263 -3871 -4306 -4306 -4303 -4295 -4294 -4290 -4280 -4272 -4265 -4255 -4232 -4187 -4120 -4071 -3287 -2974 -1578 -1398 -1858 -1933 -2515 -2931 -1955 -2757 -2905 -3223 -2809 -2757 -2789 -2766 -2530 -2189 -1986 -2101 -1779 -1597 -1653 -1331 -1421 -1401 -2094 -1333 -1228 -1488 -1494 -1418 -1593 -1625 -2093 -2513 -2576 -2689 -2658 -2735 -2802 -2776 -2711 -2634 -2430 -2370 -1876 -1837 -1309 -758 -436 -392 -344 -385 -302 -261 -280 -289 -399 -591 -638 -399 -369 -387 -276 -166 999999 999999 999999 -10 -63 -48 -153 -135 -10 999999 999999 999999 999999 999999 999999 999999 999999 999999 999999 999999 999999 999999 -391 -427 -485 -306 -408 -408 -177 999999 999999 999999 999999 999999 999999 999999 999999 999999 999999 999999 999999 999999 999999 999999 999999 999999 999999 999999 999999 999999 999999 999999 999999 999999 999999 999999 -73 -156 -545 -228 -153 -669 -355 -1028 -1346 -1160 -1232 -1376 -1302 -915 -784 -351 -111 -77 -274 -34 999999 999999 999999 999999 999999 999999 999999 999999 999999 999999 999999 999999 999999 999999 999999 999999 999999
999999 999999 999999 999999 999999 999999 999999 -223 -276 -348 -300 -432 -454 -310 -311 -331 -407 -566 -756 -1189 -1019 -465 -476 -554 -627 -711 -873 -1016 -1047 -748 -1279 -920 -1430 -1406 -1546 -1480 -1892 -1858 -1914 -1910 -1539 -2115 -1994 -616 -511 -931 -1612 -1414 -2153 -1613 -2249 -2000 -2026 -2404 -1970 -2098 -2386 -2211 -2472 -2666 -2646 -2794 -2930 -3011 -3108 -3125 -3009 -2921 -3232 -2774 -2727 -2543 -2160 -2649 -2514 -2309 -2344 -2357 -2228 -2147 -2125 -2073 -1494 -522 -192 -229 -104 -52 -21 -150 999999 999999 999999 999999 999999 999999 999999 999999 999999 999999 -142 -119 -15 -94 -99 -114 -191 -274 -715 -1521 -2844 -3343 -3586 -3632 -3805 -3916 -3956 -4001 -4000 -4000 -4000 -4000 -4000 -4000 -4013 -4000 -3961 -4000 -3987 -3972 -3839 -4091 -3242 -1927 -2698 -3521 -2858 -3204 -3502 -3816 -4136 -4404 -4387 -4326 -4300 -4288 -4268 -4274 -4268 -4278 -4287 -4301 -4314 -4293 -4273 -4246 -4210 -4101 -4007 -3957 -3667 -2978 -2309 -2698 -1441 -1328 -1502 -2202 -2451 -2628 -1537 -1875 -1981 -2116 -2207 -2474 -2252 -2054 -2003 -2191 -2213 -2208 -1512 -1572 -1815 -1790 -1631 -1167 -1896 -1701 -1791 -1785 -1405 -1765 -1721 -1823 -1776 -1840 -2317 -2494 -2473 -2423 -2358 -2134 -2023 -1147 -604 -639 -688 -663 -349 -457 -399 -393 -336 -304 -271 -284 -168 -157 -131 -55 -101 -304 -432 -407 -295 999999 999999 999999 999999 999999 -25 -148 -384 -424 -380 -212 -62 999999 999999 999999 999999 999999 999999 999999 999999 999999 999999 999999 999999 -525 -573 -647 -562 -165 999999 999999 999999 999999 999999 999999 999999 999999 999999 999999 999999 999999 999999 999999 999999 999999 999999 999999 999999 999999 999999 999999 999999 999999 999999 999999 999999 -114 -267 -472 -283 -1311 -1582 -1625 -1696 -1662 -1612 -1397 -596 -334 -244 -215 -125 -79 -51 -40 999999 999999 999999 999999 999999 999999 999999 999999 999999 999999 999999 999999 999999 999999 999999 999999 999999 999999
999999 999999 999999 999999 999999 999999 999999 999999 -129 -349 -392 -333 -603 -200 -271 -288 -320 -304 -474 -812 -1431 -1199 -1095 -828 -811 -893 -1006 -1135 -1138 -1180 -1100 -1475 -1476 -1009 -1438 -1348 -1622 -1654 -1814 -1809 -1818 -1519 -1197 -801 -324 -201 -229 -2153 -1260 -1653 -1764 -2056 -2435 -2377 -2681 -2970 -2725 -3179 -2982 -2786 -3157 -2986 -3258 -3139 -3205 -3219 -3594 -3474 -3524 -3491 -3229 -3209 -2911 -2671 -2339 -2352 -2794 -3038 -2604 -1861 -2160 -2130 -2210 -2013 -1657 -1294 -191 -139 -201 -76 -99 999999 999999 999999 999999 999999 999999 999999 -14 -125 -47 -74 -104 -160 -1873 -2081 -2154 -2231 -2376 -2501 -1965 -2708 -2537 -2073 -1614 -1395 -1486 -1628 -2644 -3969 -4002 -4000 -4000 -4000 -4000 -4000 -3948 -3556 -3258 -3929 -3499 -3008 -2822 -4097 -3582 -2592 -3427 -3677 -4048 -3978 -3816 -4199 -4229 -4211 -4198 -4199 -4204 -4257 -4269 -4306 -4321 -4314 -4302 -4286 -4248 -4091 -4025 -3931 -3851 -3794 -3523 -3352 -2851 -2333 -1366 -1250 -1266 -1185 -2058 -2428 -2091 -2681 -2697 -2615 -2738 -2725 -2686 -2646 -2633 -2539 -2264 -2178 -2063 -1913 -1868 -1649 -1600 -1556 -2047 -1995 -1838 -1843 -1401 -2114 -1995 -2005 -1412 -1208 -1557 -2004 -2067 -1974 -1622 -887 -461 -426 -430 -270 -285 -383 -416 -159 -206 -147 -10 -198 -64 999999 999999 999999 999999 999999 999999 999999 -41 -107 999999 999999 999999 999999 999999 -92 -497 -395 -161 -11 -110 -287 -80 999999 999999 999999 999999 -500 -447 -94 -10 999999 999999 999999 999999 999999 -291 -719 -755 -693 -549 -26 999999 999999 999999 999999 999999 999999 999999 999999 999999 999999 999999 999999 999999 999999 999999 999999 999999 999999 999999 999999 999999 999999 999999 -27 -144 -174 -601 -568 -1101 -1688 -1828 -1817 -1748 -1666 -1382 -469 -279 -379 -295 -200 -116 -48 -33 999999 999999 999999 999999 999999 999999 999999 999999 999999 999999 999999 999999 999999 999999 999999 999999 999999 999999 999999
999999 999999 999999 999999 999999 999999 999999 999999 999999 -153 -191 -321 -420 -196 -201 -293 -264 -271 -310 -389 -1008 -1285 -1425 -1422 -1333 -1225 -1253 -1224 -1328 -1317 -1363 -1062 -1019 -969 -960 -1193 -1163 -1452 -1326 -1408 -1500 -1136 -740 -1264 -939 -422 -2173 -1985 -2379 -2385 -2630 -2611 -2727 -2800 -2799 -3031 -2674 -2875 -3103 -2792 -2978 -3032 -3002 -3216 -3405 -3413 -3428 -3646 -2604 -2364 -2979 -2964 -3196 -2462 -2895 -2916 -2340 -2535 -2457 -1384 -2001 -2293 -3065 -2987 -2530 -3178 -2581 -1589 -1322 -1337 -352 -131 -195 -67 -152 -37 -48 -16 -246 -235 -255 -356 -928 -1470 -1880 -2059 -2128 -1696 -1995 -1901 -1785 -1321 -1192 -1091 -852 -1189 -2474 -3101 -3768 -3792 -3683 -3882 -3942 -4016 -4033 -3724 -3238 -3378 -3162 -3532 -3678 -3598 -4249 -2862 -3488 -3334 -3861 -3895 -3951 -4187 -4231 -4207 -4202 -4179 -4115 -4200 -4197 -4209 -4223 -4216 -4227 -4211 -4219 -4193 -4174 -4085 -3994 -3811 -3704 -3601 -3512 -3371 -2572 -1807 -1701 -1343 -1200 -1200 -1184 -1901 -2400 -2319 -1999 -2139 -2009 -2089 -2188 -2225 -2132 -2105 -2045 -2009 -2003 -2012 -2068 -2022 -2063 -2054 -1959 -1857 -1797 -1926 -1821 -1830 -1599 -1761 -1520 -1398 -1635 -1799 -1806 -1420 -780 -511 -439 -317 -372 -341 -202 -217 -50 -392 -650 -81 -376 999999 999999 999999 999999 999999 999999 999999 999999 999999 999999 999999 999999 999999 999999 999999 999999 -40 -467 -299 -239 999999 999999 999999 999999 999999 999999 999999 999999 -269 -714 -605 -28 -27 999999 999999 999999 999999 999999 999999 -697 -793 -814 -826 -729 -733 999999 999999 999999 999999 -648 -241 -80 -71 -115 -124 -569 -56 -120 -124 -753 -474 -46 -28 -10 -72 -75 -124 -185 -432 -1465 -1845 -1881 -1957 -1914 -1850 -1744 -1591 -700 -301 -324 -343 -429 -340 -99 -29 -131 999999 999999 999999 999999 999999 999999 999999 999999 999999 999999 999999 999999 999999 999999 999999 999999 999999 999999 999999
999999 999999 999999 999999 999999 999999 999999 999999 999999 999999 -43 -445 -244 -199 -280 -297 -306 -508 -182 -279 -300 -283 -845 -495 -1402 -1490 -1063 -462 -568 -1043 -1356 -1210 -1567 -1142 -1206 -1031 -1003 -1044 -1000 -1885 -976 -473 -737 -1204 -1307 -2314 -2405 -2365 -2402 -2439 -2408 -2712 -2562 -2600 -2604 -2781 -2832 -3017 -2945 -3175 -3020 -3549 -3393 -3669 -3240 -3573 -3677 -3671 -3757 -2790 -1880 -2932 -3013 -3186 -3233 -3202 -3199 -3150 -3164 -2908 -2247 -2293 -2525 -2561 -2220 -2412 -2320 -1674 -1834 -2238 -1573 -1606 -1304 -1300 -1052 -852 -727 -659 -507 -533 -593 -846 -870 -956 -867 -904 -879 -812 -634 -791 -748 -742 -728 -817 -1111 -2201 -3447 -3846 -3964 -4006 -3999 -3876 -3876 -3475 -3562 -3604 -3380 -3561 -3612 -3567 -4163 -3313 -3498 -3492 -3989 -3327 -3826 -4365 -4201 -4131 -4102 -4000 -4000 -3981 -4024 -4078 -4040 -4059 -4098 -4137 -4093 -4068 -4029 -4031 -3968 -3898 -3794 -3687 -3602 -3429 -3438 -3277 -2139 -2154 -2147 -1121 -654 -625 -644 -750 -867 -1280 -1510 -1717 -1645 -1543 -1450 -1602 -1814 -1813 -1611 -1664 -1806 -1765 -1297 -1217 -1376 -1513 -1604 -1697 -1679 -1696 -1673 -1658 -1641 -1555 -1411 -1385 -912 -689 -278 -310 -310 -281 -329 -428 -412 -131 999999 999999 999999 999999 999999 999999 999999 999999 999999 999999 999999 999999 999999 999999 999999 999999 999999 999999 999999 999999 999999 999999 999999 999999 999999 999999 999999 999999 999999 999999 999999 999999 999999 999999 999999 999999 -616 -624 -769 -557 -22 999999 999999 999999 -158 -230 -516 -538 -699 -747 -852 -876 -895 -931 -940 -940 -900 -865 -799 -800 -904 -948 -845 -1061 -812 -729 -766 -446 -210 -299 -767 -495 -1176 -1234 -1517 -1961 -2042 -2072 -1998 -1953 -1877 -1727 -1587 -1502 -1234 -307 -300 -312 -307 -348 -432 -251 -209 999999 999999 999999 999999 999999 999999 999999 999999 999999 999999 999999 999999 999999 999999 999999 999999 999999 999999 999999
